# .PCD v0.7 - Point Cloud Data file format
VERSION 0.7
FIELDS x y z
SIZE 4 4 4
TYPE F F F
COUNT 1 1 1
WIDTH 1566
HEIGHT 1
VIEWPOINT 0 0 0 1 0 0 0
POINTS 1566
DATA ascii
13.307166 9.6520166 26.255402
-1.2339365 4.1250916 -45.5
17.779114 0.60824579 -36.855553
-8.9372063 -12.499223 -45.196793
-15.375289 7.3064685 -44.780663
-14.198179 -8.5611267 45.5
15.53301 -7.081367 22.015018
11.989861 -10.70798 -6.179306
-16.545454 5.3577266 -14.85592
6.4621429 7.4945626 45.5
-16.830589 -4.7020187 37.224758
-9.4351292 12.274115 23.071083
11.903493 10.759387 30.160585
-10.389006 8.9877396 -45.5
-6.0038381 13.660365 -24.380611
-6.2235346 6.8471251 45.5
-0.10543671 12.837988 45.5
11.142179 -11.258291 -38.621208
9.8629255 12.046381 -22.767921
-6.5015011 13.490856 -40.464661
12.167104 -10.58396 31.731209
-3.1519818 -14.233973 -34.560211
7.8477969 -13.003519 -0.15477741
0.87356323 14.457058 -3.7785091
-17.356686 3.2548378 36.156837
-17.642818 1.9684782 2.4750633
-8.1699362 12.881691 26.922041
12.880084 9.9986687 -24.32259
-10.450351 4.8086014 -45.5
14.492083 -8.3727837 36.597122
2.7567873 14.295508 -7.6029625
-9.1405191 9.9986706 -45.5
17.190235 -3.7396128 41.594917
-16.851458 4.7809629 -31.931509
11.958472 -2.6596661 -45.5
10.522202 -11.660779 -29.865475
8.0489416 -12.908677 14.764619
17.812477 0.22787863 38.688332
0.48825088 -6.9758096 45.5
-17.119019 -3.9873071 -26.034943
10.994461 -11.354191 -12.151608
-0.0011371579 -14.484122 -17.777838
2.9316804 -14.281431 45.095032
16.97224 4.3944921 42.337471
-15.00424 7.7924261 -20.70504
17.539614 2.4818411 -19.12196
-10.159012 -11.892351 3.8465471
-7.6444483 -13.090244 -16.668274
-16.871872 4.7384543 -43.678032
-1.4949704 5.6064563 -45.5
3.8985493 6.8306484 45.5
2.4560366 -14.335861 3.2342377
4.8216515 13.941469 37.256302
13.838236 -9.1216755 -17.218445
14.247586 -8.6631041 -12.179087
-14.992783 -7.8103962 6.6025562
-17.389603 3.1541038 28.162235
3.4247613 -14.18798 25.990768
13.480158 4.4950953 -45.5
-2.1499596 -14.366053 34.94492
8.971384 12.523155 29.401966
-5.7712412 -13.680143 -3.7897358
9.0425339 12.493957 -34.536339
-13.303585 9.6239605 31.347775
-17.693153 1.613571 -39.295502
-17.52977 -2.5119448 30.447824
13.441676 -9.4686747 40.012215
-13.546453 -9.4050446 24.434166
17.74161 1.0358516 31.157722
12.848061 10.023612 -30.283464
4.6116529 -7.1041746 45.5
4.9969172 -13.890017 9.5230713
14.152263 8.7639704 -37.349453
-10.133703 11.909786 22.991629
-17.592209 -2.2176564 -15.976573
17.061201 4.2034245 44.784866
17.529896 -2.4401782 30.342407
-17.308533 -3.5176983 -30.508827
13.115813 9.8150463 -8.3730621
-8.7884645 -12.567224 24.986248
-4.2070251 -14.045998 -9.3113937
-16.31599 -5.8180165 -11.446049
5.1535907 -13.860324 -40.136234
16.956367 -4.3462405 38.292664
-1.2510607 14.456887 -25.549301
12.45345 -10.3334 -32.598473
2.8242407 -14.301794 23.559301
6.5139194 9.5018988 -45.5
17.498213 -2.6021919 8.7686014
14.284998 8.6244888 10.095968
-15.144794 7.6083426 -40.298409
-7.7848158 -13.026071 24.062956
-17.364271 -3.2919855 19.732687
-16.743233 -4.9184837 36.646545
9.3119049 -12.313177 -11.28994
15.446642 7.1731339 -17.343481
-2.9576237 -14.2686 43.413094
-3.0214586 11.345877 45.5
5.2744565 -13.837417 41.292625
-11.202047 -11.233486 -5.8181648
0.99589771 -14.431954 29.331024
16.375954 -5.6700716 19.09758
-9.7197886 1.1626062 45.5
-16.963068 4.459373 28.496849
4.8481269 13.934355 39.503868
-13.428194 -9.505805 30.70652
-17.799959 -0.29165852 -33.333961
13.761675 -9.1886673 -34.360718
10.902916 -11.413621 36.051994
-5.0853705 13.870111 -2.4535024
15.597328 -6.9736814 -2.3985748
-17.704977 -1.6861575 -41.262047
-5.0573416 13.876512 5.0973482
-1.8709614 14.393263 -21.409384
2.3286731 14.355589 -41.705528
-5.8394308 -13.659023 -3.3084903
-2.3230019 6.7161722 -45.5
13.600358 -9.3298244 -0.26738739
17.607586 -2.0429039 38.981995
15.069675 -7.6869373 -6.846962
10.259043 -11.831621 6.2537718
-16.777077 4.9211597 -14.749128
-13.57383 -9.3817196 13.123058
-12.146541 -7.4547982 -45.5
2.5770812 1.6382532 -45.5
-11.319963 11.178999 21.252314
13.744896 -9.2033501 -20.005184
17.104546 4.1012869 2.5606384
1.1642988 7.377502 -45.5
-1.7288688 -3.4706926 45.5
-17.563473 2.5279443 -0.0083312988
6.3520398 13.530274 -42.245453
13.948186 -9.0186195 -22.944416
-9.3050938 12.341932 23.365555
15.668035 -6.8553019 7.5374279
-12.618713 10.255434 39.930107
11.133969 11.315298 -28.762405
-15.075526 -7.7148943 42.462563
-6.9794674 13.316345 30.0299
8.483984 -12.70355 -22.100269
17.162304 3.8862972 39.725067
-15.891558 6.5902114 -33.279442
-14.513181 8.4355593 -25.808479
4.3519821 14.067663 -44.16996
-10.315753 11.814841 -43.720528
-14.89312 -7.9254284 -40.235054
17.667816 1.8771245 -29.256983
-13.638522 9.3031855 44.91766
-13.209257 -6.2170529 45.5
13.685393 -9.2554169 25.549301
10.675785 -11.561072 -18.362663
17.263372 3.510088 -1.6460476
-4.0058122 14.116644 22.309917
12.541926 -10.25598 -24.491299
-10.636218 -11.59091 -5.2541695
10.374705 -4.4136992 45.5
-3.0836062 14.268805 20.260473
4.2571478 -14.030222 29.5923
-14.808475 8.0488148 22.288963
-17.798429 -0.33655187 -33.415665
-17.734211 1.324068 -4.3977079
9.6573486 -12.150296 31.578545
15.136639 7.6235247 -27.92152
2.9923799 14.262447 25.18914
-5.0208426 -13.901003 -3.9625511
-15.323694 7.3740416 -33.046532
10.040539 11.94422 28.495583
10.433165 11.718389 16.594196
-16.257088 -5.9133844 34.026669
-1.9540417 14.384737 -22.538612
3.6700163 14.167351 14.793901
17.660189 1.9640713 -16.27796
-17.808872 -0.030370504 -7.9481277
2.3622913 -8.5301456 45.5
-6.527319 -13.445963 -12.592773
-17.705734 -1.6825931 20.586739
14.005219 -8.9508972 -27.198771
-17.232475 3.6349421 25.332424
8.3218946 12.789689 -17.545679
-2.2000437 -14.363302 15.755103
14.492453 -8.3723431 -29.676157
-0.88069975 -4.7054954 -45.5
7.2877579 -13.194675 -16.41666
-16.839773 4.8029871 14.344449
14.036767 -8.9134359 -31.420715
-14.762348 -8.0763645 36.923649
-13.459173 -9.4794092 -4.1385078
3.0273702 14.257536 -28.699345
3.4186225 14.202629 36.670967
4.7947464 -10.718772 45.5
2.1702533 0.64473343 -45.5
-9.3273401 12.33033 0.3876667
2.0471122 14.395103 45.459724
16.816948 4.7280335 -30.301039
2.4266915 -6.8066845 45.5
-2.6217394 -14.089662 45.5
-6.4612021 13.50557 -33.736847
17.422642 -2.9886279 0.43222713
-8.5754843 12.722447 42.592865
-10.448736 -11.709338 16.847876
-6.3091488 13.561087 -25.257034
6.8778253 -13.326743 25.274887
-2.4108932 14.337849 -24.392784
-15.855614 6.6579585 -41.313004
-12.786374 10.119304 26.961018
-3.4524732 -7.8856387 -45.5
-16.136276 6.1289577 16.127007
-1.6328987 14.417698 9.9495678
-12.30705 0.0086231232 -45.5
-11.908705 10.760334 -37.059097
8.8522501 -12.529909 -7.0765886
-16.682549 -5.0688567 14.321972
12.951838 -9.8972979 36.064392
-17.359995 3.244709 -20.219973
15.667385 6.4575357 45.5
-7.8963165 12.981593 -9.4985857
8.9100761 12.548314 -26.37145
-17.151146 -3.9076979 -43.426888
-6.7330799 -13.382233 -11.793362
8.9081964 12.549086 -23.004227
16.359776 -5.6971583 31.846926
5.5115485 -13.766916 30.998999
-14.628692 -8.2306299 -16.327042
9.4156523 2.3133812 -45.5
8.1125393 -12.87869 -43.908531
-13.904398 -9.0666084 37.54248
3.2124429 -1.1611359 -45.5
-7.0257015 13.299465 -40.629128
7.9255557 -12.966856 14.590882
16.221535 -5.928606 -43.702152
8.3844833 11.382774 45.5
-9.6159668 -12.188908 -10.364037
-5.3441525 -13.812426 -17.457832
-15.153399 -7.6250143 -32.688583
2.7931442 14.290407 16.529041
17.129023 4.0101748 -5.4091759
13.85858 -9.1038742 -4.0333862
-15.382914 -7.3287616 -34.356331
16.627178 -5.2001171 28.657404
-9.5168209 -12.234234 28.796753
12.434298 -10.350158 16.683937
2.2451127 -14.349743 -22.583981
-2.8576117 -4.8990479 -45.5
13.608784 9.3350697 -18.17742
2.8059852 14.288606 28.345154
-5.496532 -13.76523 -16.928585
2.0976338 6.9220152 -45.5
3.4814854 14.193808 27.493238
11.023006 0.95391893 -45.5
-16.973555 -4.3477588 8.7640944
-4.5040388 -13.99308 -31.085159
-16.715197 5.0377941 43.50148
15.495675 -7.1438746 38.619499
8.0642128 -12.901478 -4.7465272
4.2085395 -14.039434 12.204308
1.3096319 14.449018 -38.491001
-14.637505 8.2727337 24.876686
10.12306 11.896755 -35.355927
-2.4137177 13.015343 45.5
14.02649 8.8961353 31.915512
4.5376391 -13.977062 22.709253
-11.07328 -11.314825 1.9264297
3.6679268 -4.8069124 45.5
-2.5167837 -14.345898 20.324379
-14.563787 -8.305541 -6.9313354
-1.5322522 -0.26122522 -45.5
-16.300552 5.8193245 25.450966
-17.502771 -2.6391993 16.115284
-6.5254331 5.2691941 -45.5
15.496279 -7.1428638 5.2585759
-3.7675526 10.003288 45.5
16.675671 5.0314727 -45.221664
5.6905994 -13.709231 -12.741467
12.212963 10.518324 36.171219
16.897324 -4.4993911 -10.179394
2.9408908 -11.925443 45.5
9.4868231 6.8392854 -45.5
5.9251766 -8.8017664 -45.5
-8.6434736 -12.633511 -35.326744
0.44320714 14.464993 -40.182621
-4.6242838 13.975406 -38.428276
16.303782 -5.7909045 -8.7437744
12.334303 0.19830441 -45.5
2.9185691 14.272805 -1.8019142
12.799459 -10.030632 25.815569
-2.1990442 -14.363357 -25.517281
-8.8448868 12.581944 33.826492
-17.415047 3.0762398 -38.683823
-17.815271 0.75251609 -38.85429
9.7641859 -1.3120203 -45.5
0.82410014 14.45797 -43.857437
-1.3339844 4.0521488 45.5
-2.8152997 14.296341 35.657455
-14.053339 -8.894701 -7.1578979
-13.643561 9.2983589 -22.568321
-16.582191 -5.3175364 -23.604059
-15.723042 6.8510222 24.94804
14.078067 8.8419361 -26.21549
14.867731 8.0121403 10.790032
11.832861 -10.809904 35.178093
11.359444 -2.7473555 -45.5
3.8363218 -14.109979 -14.899984
-9.4101658 -12.214007 -45.5
-2.9017773 -14.278551 7.6791067
-17.796362 -0.39716837 -36.186684
-17.722424 -1.603935 4.4714546
13.481531 -9.4338017 -39.196968
-1.4068124 -14.406885 -30.80085
-8.3278427 -7.223772 -45.5
-0.81790841 -14.439243 -35.957428
-17.824013 0.4135035 18.344423
-17.700809 -1.7058063 42.852718
10.992382 11.396736 -18.75259
-17.433563 3.0195732 -32.932228
10.247052 11.825437 20.180008
-0.31523213 1.9053061 45.5
9.9356165 -12.019091 30.949751
-13.019073 9.8964443 4.0821724
-15.505979 -7.1295066 23.38969
6.7397408 -6.2257552 45.5
-7.7673893 -13.034039 -2.6570663
17.49136 -2.6372321 9.5289335
-17.772911 -1.0847126 -5.11304
-3.8207779 7.1978121 45.5
9.8034983 12.080561 10.005508
-2.7596209 14.302057 -21.639381
-14.805202 8.0531034 -27.207047
-7.4497881 13.144627 25.786175
-9.1531382 7.1582928 45.5
7.997375 -12.932993 44.09082
-16.118984 -6.1369891 -12.568844
5.0880947 13.86988 -34.61594
17.656528 2.005805 -30.544945
-0.51906544 -14.455664 39.456642
-5.7505031 13.718218 -10.486671
15.480288 7.1242523 -20.719824
-10.913534 -9.0924635 -45.5
-2.343713 14.344744 -1.0226557
-12.892672 -5.6960454 -45.5
-17.7616 -1.4163704 -14.190052
1.8066002 14.428854 -14.604876
17.658834 -1.7808299 -29.018698
-13.873034 -9.102808 31.912224
17.029404 -4.1567922 -12.28299
7.4913664 -13.12908 -23.622063
15.52986 2.1050706 -45.5
11.310501 -11.149018 14.671944
9.4935026 11.409097 45.5
17.751602 0.92189497 1.524374
-15.133219 4.193419 -45.5
3.1240392 11.287408 45.5
-4.6065321 -13.974819 41.914795
7.4978118 13.127872 -39.318771
7.8278255 -13.012936 -16.931454
-15.308022 -7.4465494 -28.019325
0.47248214 -14.4664 -16.924873
5.5669503 8.7481146 -45.5
-16.625076 5.2076583 -7.4963217
-8.3873501 12.802311 24.809185
-8.6115971 12.703611 37.285667
11.139277 -11.260176 27.77314
17.507002 -2.5572472 12.096817
2.8418844 14.283567 -18.923241
-1.6900239 -14.391325 22.407152
10.519528 -11.662515 -40.371346
-17.204218 -3.7761898 31.451111
16.920559 -4.4391193 9.9827385
2.8142498 -14.303687 42.245285
-7.1844049 7.6824236 -45.5
-3.0235178 14.274971 19.262589
-5.3903742 13.800459 1.4652443
1.7829127 14.43218 19.236313
-11.714893 -10.015691 -45.5
12.676706 -10.138042 -5.6655426
-10.289221 -11.810102 -38.268532
9.1058445 -12.410337 -34.610191
7.2075715 11.247171 -45.5
1.2565449 -14.414801 -22.833364
-12.485291 -10.309181 13.859779
0.19445994 -14.484696 19.718216
-15.486343 -7.1612973 -45.25946
13.349161 9.6078873 -15.831665
11.222061 0.40356398 45.5
-2.218272 11.474248 45.5
7.3237424 13.199306 35.86586
9.7450132 2.857069 45.5
-11.550071 11.015365 29.813337
3.8701668 14.139262 -28.3225
-5.7697334 -13.68061 -29.489586
-2.0537696 -14.371338 -14.718128
-16.461557 -5.5823288 9.7298813
-12.375828 -10.402448 35.101563
1.9837562 -14.366942 29.35804
16.207981 6.035985 -18.903902
-6.8081627 -13.358976 -8.53125
-12.321929 -10.448368 -20.278545
8.1449585 -7.3329086 45.5
16.393843 -5.6401181 -40.734852
17.674171 1.8046561 13.256733
15.306688 5.7832894 45.5
-9.4170637 -12.279841 -15.898418
16.714849 -4.9727054 37.929962
-11.245521 -11.206025 21.345623
6.7512412 -6.8506474 -45.5
17.687763 1.6497077 -28.328907
-12.951583 9.9610806 21.686249
4.1451592 14.100671 2.5278831
15.978155 -6.3360834 4.9214592
8.1910267 -12.841682 27.715233
-16.305496 -5.8350077 -3.9753265
-9.0255356 -12.45884 -0.036087036
8.0866528 -12.890896 -32.81039
14.13802 -8.7932062 13.026983
-8.3269062 12.824379 10.725193
10.850292 11.478463 29.471046
-15.431731 4.7828174 -45.5
17.314089 3.3213067 -16.355644
-5.3075304 13.819377 6.6429548
-4.0499768 14.106558 43.711407
-12.671947 10.217577 -26.923927
11.070478 -11.30484 -5.0412445
-3.0779569 14.269383 3.2389097
10.395058 11.740307 -22.94463
4.5614285 14.011387 -8.8953476
15.267403 7.4335427 -5.1077385
-6.097599 13.638325 41.324188
14.488435 8.4107132 -33.658073
-17.34206 -3.3966675 -40.343979
-9.624918 12.175135 11.968342
-17.769196 -1.1936712 40.935795
1.3009357 11.987416 -45.5
-11.477377 11.06706 40.554173
-6.1335297 -13.567932 28.772619
-14.247379 8.7200718 40.185673
-15.782228 3.1897144 -45.5
-9.6520748 -12.1724 -22.583168
15.621635 6.9188943 -15.697826
-17.805544 -0.12797685 16.650898
16.739807 -4.9079719 -18.236814
-12.677484 -8.9267435 45.5
-15.988229 -6.3486953 12.495086
-12.040246 3.980449 45.5
-1.6860898 14.412237 -18.868317
1.1890202 -14.419245 36.747818
17.55022 2.4423666 41.613777
9.6368494 12.176414 28.557037
17.731827 1.147355 -2.3987732
-11.48955 11.058403 5.9837704
-17.408707 -3.0825448 -11.175153
-7.9245901 4.323844 -45.5
17.09693 4.1266832 43.896114
-17.463446 -2.8245511 -34.583885
12.660106 10.170021 -26.827385
12.062178 -10.661033 -7.579628
-14.53557 8.4062347 11.091064
10.268115 6.3386374 45.5
17.70443 1.4597036 -38.094036
17.790308 -0.77363229 31.578545
6.6631413 -13.395908 -44.993141
-1.1233692 -14.422461 -20.041342
-3.8143296 14.160372 20.923765
-0.1481405 -7.6073656 -45.5
0.41836193 -14.469961 -12.404001
17.243137 1.2782679 -45.5
-1.0757843 14.474876 10.411076
-1.3496637 -14.410026 24.916569
-7.6154456 -13.040755 -45.5
-7.0572872 13.287932 25.0632
-0.095041767 -14.478962 -9.6086712
-12.271918 -10.490979 39.83255
10.301497 -11.804059 21.567926
15.422642 -7.26615 23.259264
-6.0733519 -8.9728346 -45.5
-10.799986 11.548765 23.261177
-16.584419 -5.3120151 4.1577511
-12.656023 5.4272223 45.5
13.305279 9.6539993 6.1739578
4.3974237 0.30529642 45.5
-1.4511957 14.436346 24.290695
5.114584 -13.867716 -22.550919
1.5876426 -10.797793 -45.5
-17.243608 3.600872 -8.4469948
-16.793571 4.8900728 7.9026279
5.7984409 13.679019 -39.092438
-6.7479806 12.988033 45.5
15.204849 -7.5264282 6.4933052
-6.7584152 -13.374385 -11.923332
5.5328012 13.750392 28.604792
1.7927127 -14.379515 -40.740177
14.389555 -4.2689643 -45.5
-13.337286 9.5916843 3.4343605
6.3331394 12.116191 45.5
-5.0851526 13.870161 -13.520661
10.790768 11.512702 41.467155
-0.5039233 14.482456 34.392738
3.0980883 -10.732725 45.5
17.790586 0.47745234 31.248331
13.18337 9.7624235 4.9826841
6.8667164 0.58213902 -45.5
1.9164072 14.413445 13.802586
16.378191 -5.6663246 12.037643
-12.739892 -10.092255 -29.08917
-0.55781108 14.48345 -7.6329842
14.410135 8.4929905 -42.587807
13.95525 8.9709969 -31.121078
-10.523686 11.706399 42.811306
15.139332 -7.6042256 18.286587
-4.5402341 -13.986631 -27.550339
-5.1306677 13.859766 44.829727
-3.4763727 -14.176176 9.8839331
-17.682043 -1.7942499 8.9160633
-7.562263 13.103559 38.890022
-17.820353 0.7166782 -32.319576
15.134918 7.6260233 -14.98761
15.574173 -7.0124497 16.302654
-16.88135 4.7094474 32.742683
-6.6108494 13.450932 0.50546455
12.022442 -10.68683 19.81926
12.940707 -9.9070368 44.797462
-11.344077 -11.143768 -38.794823
13.68551 -9.2553139 -42.598557
10.571926 11.638576 11.267315
16.555557 -5.36937 0.18845367
14.499193 -8.3643408 -29.488327
11.532779 11.048154 29.976654
16.539391 -5.3964372 36.836876
16.664658 5.0551295 7.8866272
-7.4824643 13.132695 -3.4513431
-0.1264912 -14.092599 -45.5
-17.418568 3.0654643 -38.506523
16.669744 5.0441999 5.5787697
-4.9131699 -13.920186 -23.023458
-17.571308 -2.3161712 31.950005
12.369833 -10.406565 41.333382
-16.559023 -5.3749466 -28.640255
-17.693209 -1.7416279 19.42206
-17.446764 -2.9031742 -30.342407
10.464493 11.700369 -34.605232
5.0786495 12.132433 45.5
-3.9225388 14.13566 23.679893
6.0689378 13.60634 45.288696
-17.817039 0.20908301 18.827995
5.2614908 -13.839874 30.387375
4.1373043 14.101772 -2.3770072
-12.76142 10.143204 38.060593
4.8164067 -13.924229 -14.214713
8.4487514 -6.3503189 -45.5
-12.94208 -9.9199867 -31.035652
-13.958737 -9.00389 -12.250948
-14.664338 8.2375898 -13.021858
-0.34515011 -14.465219 -43.915764
16.816849 -4.7081366 -26.573132
-0.81315547 -14.439505 23.877434
2.7217011 14.300432 -39.214218
-5.1081653 1.2707266 45.5
-7.2363358 13.222559 -26.376801
-1.6537733 -14.393317 7.0863438
-6.5421934 10.929828 -45.5
2.3042297 -14.345852 -2.1182461
-17.736448 1.3082898 -33.024002
10.210217 11.702805 -45.5
-15.017122 -7.7823048 -35.484489
10.093527 11.913742 22.9275
10.056763 11.934889 -38.448685
5.9152369 -13.63686 15.173956
-2.311084 -14.357201 40.019642
-1.9551393 -14.376759 -33.428474
17.309166 3.3396299 -26.938778
-5.2455864 13.833523 9.5316238
-6.2573271 -13.529587 25.159798
0.82203931 -14.443395 -21.474831
17.818096 -0.24714193 -31.459209
4.1445622 14.100754 -30.341249
5.1143589 -13.867758 -25.241402
-4.6326218 13.973501 8.5098743
17.35858 -3.3029473 -34.225418
1.0164877 14.454423 -32.644257
-13.260656 9.6650743 40.84589
-1.2267758 -1.6485624 45.5
17.672697 -1.709939 25.273102
2.7662685 -14.312781 34.257458
-4.9329834 13.904911 9.4305153
-9.8748302 12.044797 12.308556
-3.9200056 -14.097136 -38.398155
-13.36566 -9.5590849 43.734638
15.387898 7.2584791 -3.9147129
14.628495 -8.2108049 -11.468699
-16.640057 5.179419 27.791437
17.728683 1.1831971 25.060326
-2.3482137 14.344282 4.0333824
-16.113819 -6.145349 -4.6374779
-13.104346 9.8147755 37.85083
15.824193 -6.5938554 17.703506
1.2534058 14.450055 2.1000538
-17.769043 -1.1981446 -34.689728
-17.530245 2.7237177 -20.28212
-4.2740135 14.055396 30.144012
-15.244748 -7.5195789 29.086733
-2.2353449 -14.361362 -10.517635
5.6929374 -9.0266314 45.5
13.891735 -9.0748615 -10.227896
-15.489795 -7.1557102 6.3391447
-6.5111008 13.487351 -4.8738213
-17.737244 1.3026918 -26.788742
-11.494248 11.055061 6.5863171
0.86258113 14.457261 23.231516
-12.217602 -3.1221962 -45.5
-11.627781 -10.964558 -15.795432
6.0184827 13.619898 14.641994
-17.006966 4.3250422 20.759785
-15.611469 6.9971466 5.1354017
16.569386 5.2597513 -33.214035
14.505508 8.3927717 42.132965
-0.67633164 14.485636 -5.8815765
-0.78196573 -14.441218 41.662178
-6.1977706 13.601752 20.374619
6.9990196 13.332564 -1.087738
-9.1186514 5.8293967 -45.5
17.146471 3.9452221 38.019272
-6.2186437 13.594131 -30.150564
-1.406004 8.0333633 45.5
9.5387688 -12.206208 -10.13488
-13.317609 5.7151728 -45.5
-9.4180059 -12.279411 20.525948
17.710484 1.3906772 -14.682682
16.580017 -5.3224492 -16.11445
17.713261 1.3590312 -4.1860275
3.2135222 14.231413 -20.380272
-9.5853786 12.195754 14.894274
-12.548786 -10.255081 17.718208
-11.899302 -10.793043 14.409183
-9.8567295 12.054237 24.954266
-13.62909 -9.3346357 41.185684
-17.123434 -3.9763665 -12.123226
-17.433495 -2.9657099 19.409281
-16.539394 4.4792829 -45.5
13.00631 9.9003439 15.636421
1.1717346 -14.420382 35.03231
-6.2976408 -13.517101 -30.160585
-11.487369 -11.053253 36.934639
0.75750589 -9.9449339 45.5
-5.317759 13.817043 -15.797737
-12.15932 10.582115 -2.7593517
-0.86517483 -14.436647 36.900982
-17.333748 3.3250322 34.837925
17.47208 -2.7358248 23.240707
2.8471632 14.282826 0.083236694
7.2594318 -13.203801 -40.986198
0.17464998 14.469944 20.592339
1.3524523 -14.408489 28.317774
-5.9288244 13.677496 -17.78532
13.256189 -9.6309814 -20.604847
17.712547 1.3671608 -38.969719
-10.500031 -11.676935 -12.131536
-12.183664 10.564804 16.007986
5.185112 0.49920499 45.5
12.215586 10.516281 21.41127
5.8434863 -11.482656 45.5
12.610608 -10.195882 22.529327
0.78681183 14.458658 -14.851811
17.120819 -3.9196706 11.967323
-14.759367 -8.0798044 -4.9014053
-10.602341 11.665378 -18.384079
17.644119 -1.8560765 6.631649
16.624172 -1.4787838 45.5
-5.1468978 -13.873522 -28.27994
-17.404045 -3.1045222 -6.7932501
-16.953945 4.4872952 10.566267
14.713624 8.1740799 -35.367851
11.183147 11.287012 -40.866604
8.3701382 -12.75723 -29.924526
-2.064687 -14.370739 1.1902809
4.1598229 -14.048667 -17.959959
2.5256267 14.327949 43.24482
-16.83316 4.8154511 -35.959763
7.7863545 13.009461 32.000343
17.071703 4.1808681 -17.357758
-3.6957827 14.187444 -28.878807
10.57245 -11.628159 -7.1489482
-16.233889 5.9449763 41.587215
-11.282195 -11.182858 -30.919992
-14.662064 5.2137327 45.5
-10.247459 -11.836481 2.9697924
0.46694249 -14.466764 23.129847
16.468681 5.476048 28.293808
5.3036985 13.811949 -44.849663
-12.898637 10.011786 -39.423561
14.470404 -8.3985262 4.2552528
7.0669851 -13.265802 -36.609711
-17.219881 -3.7373779 -8.9389687
-9.8415222 -12.085789 41.541664
-1.1298324 14.469331 38.780415
1.5276005 -14.396961 -3.4596844
16.463417 5.4873581 -33.070698
1.8716991 4.1296225 45.5
-14.725899 8.1569653 -5.2536697
9.0263853 12.500584 -10.838357
-17.447268 -2.9008067 -5.9834127
-8.7381878 -12.590209 4.273232
10.604675 -11.607237 0.87147617
0.12894112 -14.489008 -18.695633
15.59806 -6.9495025 -45.5
2.6538339 14.309958 41.80069
11.628967 -10.942271 -31.435087
15.912858 6.4957895 29.36142
7.0266838 -13.278786 8.3930931
-17.639864 -1.9930497 -1.0677605
14.376826 7.0962267 45.5
-5.0153022 -9.8988552 45.5
-2.8333831 -14.290736 5.4942694
-4.9065409 -13.921368 41.273506
16.72308 -4.9513636 -6.1714754
-7.5824432 -10.986788 -45.5
5.5744243 -13.74666 17.628174
-14.532797 -8.3413115 -42.271271
17.683889 1.6938782 -43.075523
-17.262449 -3.6318955 28.796753
-17.775597 1.0322636 19.060505
-15.989977 6.4047055 -29.568741
3.053952 14.253807 27.910967
2.1285117 14.383678 44.206398
-3.608707 14.207329 33.237617
-3.2176237 2.9148707 45.5
-1.2705475 -14.414373 -19.326042
-1.8546002 -14.0632 45.5
2.6257977 14.31389 -43.815678
16.622818 -5.2114267 -14.789693
3.9322987 -14.091788 28.97728
15.93557 -6.407383 -38.751328
-10.720572 11.603717 -22.689638
-14.65717 8.2469778 -32.172974
-15.276148 7.4363117 18.107038
17.685936 1.6705295 5.3904152
8.2966194 12.800062 -17.363707
11.095279 11.337553 40.62326
-17.288679 -3.5669017 14.178382
-17.386099 0.21999148 45.5
10.080903 -11.947268 -4.8944659
8.0108747 -12.926626 11.929777
-16.889912 -4.5550208 -33.497284
-3.2870162 -14.209913 -37.855721
16.323271 5.7883644 9.3090858
-16.926323 -0.74317789 45.5
1.7663156 13.707705 45.5
-16.074331 -6.2092857 11.076382
-1.8442663 -14.382851 2.4075699
-11.16996 11.285669 -9.8230896
-16.683453 5.0976272 -19.36161
15.32256 7.3534069 44.810051
-17.636122 2.0157027 -8.0473289
8.9646673 -4.9817982 45.5
7.7669358 -7.6180634 -45.5
11.572617 -10.978855 7.6969414
-8.9626265 -12.487601 -1.9760437
-7.7833719 13.02283 22.663792
-3.3961425 -14.190471 -31.048859
11.961488 10.714211 41.318832
-14.905405 7.9218674 -32.808083
-3.7597663 9.4764481 -45.5
-1.1089969 -14.423249 -20.456459
13.360128 9.5963631 12.171448
-16.637741 -5.1798854 -37.752571
-8.1404953 12.892439 33.538937
-1.1679888 14.465414 -11.508144
-8.7390194 12.637157 1.1503754
15.904155 -6.4599786 -36.338356
15.96535 6.4195266 -4.1873589
6.1149559 10.467256 45.5
14.710826 -3.6060767 -45.5
-4.9909773 -13.906323 4.6010036
-17.828308 0.53943652 16.929512
9.0334377 -12.444477 33.629936
-9.4248486 12.279476 -12.573193
3.1097124 14.245981 31.361847
5.2761512 -13.837094 -45.331688
-16.786039 -4.8124137 18.9461
17.232363 -3.6303396 10.397953
5.3670526 13.794928 -6.0413704
13.622946 9.3201876 26.490982
5.1171093 13.862083 -30.754164
-17.576807 -2.2902541 -28.336601
-16.668301 5.1261835 -16.869675
-16.945457 -4.4173837 4.2570782
-8.2556019 -0.44235134 -45.5
-17.722725 -1.602518 1.4046803
7.7401557 8.3678789 -45.5
6.2770338 -13.5203 -42.172783
-4.3224411 -14.025434 37.36824
-6.8485441 13.364147 35.542946
-4.4001064 -14.011597 -9.6010933
0.50923228 14.463776 -11.226203
-2.802577 14.297647 -8.9682808
11.960494 -10.727046 -25.562035
1.2141393 14.450779 -29.095934
14.335481 -8.5587368 30.165596
-0.96647871 13.709693 45.5
14.519319 8.3782597 -11.36693
16.174383 -6.0075493 -36.542492
16.593313 5.2083635 35.000923
17.785196 -0.87047064 -2.6424847
10.574545 11.63707 0.58018875
-16.153294 -6.0814366 23.503437
-1.9985332 14.380171 41.382889
-17.468515 -2.8006599 33.821053
-14.464933 -6.8787823 -45.5
-8.2650747 12.846954 5.7411089
-14.546552 8.3918543 8.7472115
-6.7302837 13.407326 35.031612
-4.8729758 -13.927348 -15.425312
-0.90137231 14.489785 -18.149691
11.093826 -11.289682 -17.93679
-16.170837 6.0638175 -5.9951401
-16.06498 6.26334 44.426323
-13.635032 -9.3295727 -36.19133
17.314915 3.3182306 2.4738007
5.7618837 -13.686266 -4.7627544
10.859871 11.472956 8.1910229
-3.6145172 -14.151565 -24.041174
-13.156448 -9.7373381 -43.524872
7.6627293 13.060195 21.176689
17.171507 3.8520384 -7.0501766
-11.447714 11.088154 -14.829235
-16.911961 4.6157694 -44.611153
2.595494 -14.326684 -14.494648
7.326159 13.198315 -26.736204
1.9680536 -14.367976 29.86776
-10.834957 11.523897 43.247711
-5.9064789 13.682599 1.9801292
11.718139 10.903769 30.001762
-17.532324 2.7173574 24.596767
-6.7311625 -13.382827 31.983318
-4.2616096 -14.036273 39.056576
-11.182564 11.276706 -32.998253
-17.786068 -0.69901758 13.481985
-13.125716 9.7943106 41.849026
-0.013326466 7.70222 45.5
10.740945 1.9364625 -45.5
-4.7429705 -13.950511 27.458431
-14.013083 -8.9411631 7.0832882
1.9133044 4.404593 45.5
-10.755095 11.580688 15.52237
17.496414 -2.6113892 38.824799
-12.794649 -10.045599 -15.634426
13.423364 -9.4847002 -18.154312
-15.759615 -6.7188454 -35.498528
13.605812 9.3381929 35.702629
6.366931 -9.014636 45.5
-12.118147 10.611396 -44.702248
-16.58539 -5.3096085 5.8918066
8.4670238 12.730131 8.6510544
17.805742 -0.48119467 4.662674
4.7523022 -13.164762 45.5
13.237504 9.7202549 17.539406
10.773778 -11.497457 13.393174
11.793377 10.84516 6.7139893
17.098488 4.1233377 -5.7591667
-1.9694726 -14.37597 17.33036
-17.637856 -2.0025156 13.993355
-7.8552842 -0.84527498 45.5
12.551805 -10.247334 -12.966249
-2.4105051 -14.351738 12.199579
-16.952019 -4.401124 30.619287
9.2157955 12.418596 -30.604202
-17.27412 3.5075006 32.318295
-3.6138463 -14.151683 -21.603613
16.829971 4.7000651 42.494133
-2.1023488 14.369515 39.089172
-17.582882 -2.2616191 33.220867
17.681261 1.7238563 32.46524
-12.924296 9.9872141 -43.448196
-17.775471 -1.0097402 35.023743
4.453651 -13.992979 -14.748357
13.690693 -9.2507792 -42.594097
0.13685791 14.470642 43.278984
-17.148399 -3.9145031 17.846451
11.534874 -11.003357 6.9771118
17.68364 1.6967409 23.707855
-17.059101 4.1654968 15.535018
0.36845651 -14.473246 6.3236403
7.0803165 -13.261507 -7.9950962
4.9571652 13.905058 -30.937689
3.8172748 14.146685 19.269161
-11.667309 10.931995 42.429314
17.288818 -3.4838965 -27.159742
17.618057 2.1898553 12.062754
14.99127 7.8347225 37.834488
15.112397 -7.6362076 -26.225855
-17.35453 3.2614346 -29.275284
-16.092831 3.4796906 -45.5
-14.119139 -8.8187542 -10.197632
13.366264 9.5899143 -8.2011776
-6.5189519 -13.448554 39.769482
-3.455755 14.230608 37.141834
4.900907 -11.638383 -45.5
16.992018 4.3520184 8.3440275
-17.80508 -0.14151359 35.155384
17.24036 -3.6095951 -43.822456
5.7102184 -13.70291 10.636131
15.49777 -7.1403656 12.411712
-17.664692 -1.8760312 13.263863
-12.16857 10.57554 -38.316788
-10.595357 11.66902 29.992868
-10.11281 11.920683 22.574211
-16.979889 4.4078975 -29.481155
-17.57346 -2.3060334 19.050858
-5.9061174 13.682681 -2.3899784
2.3708408 8.2449017 45.5
16.630892 5.1276474 -19.675491
15.58179 -6.9996963 28.820837
-16.655048 -5.1370058 28.126236
-9.6241217 -12.18518 45.317112
-6.9413986 13.330244 -14.906685
13.007278 -9.8487854 24.544485
-10.326918 11.809019 8.8320723
12.765001 10.088312 -8.9268856
17.444647 -2.8761046 -12.610461
-0.47654122 -14.458 32.299603
15.425661 7.2036161 -4.8551388
6.8149204 13.405905 -38.658352
-7.7799048 -13.028316 15.846152
-2.9326296 -14.273054 -31.739031
-6.2988443 13.564849 -26.638268
-7.0174522 -13.294153 6.7718487
-7.5676403 13.101596 -25.1015
13.065547 9.8542023 6.6958518
-9.3527546 9.0445614 -45.5
8.296731 12.800016 43.042404
-17.780499 -0.86228478 -15.846844
-2.2971926 14.349518 -4.8311615
16.042803 6.3070006 -28.882994
-10.177875 11.88675 -21.844002
17.036186 -4.1391969 27.436089
0.5196262 -14.463297 -13.858706
-3.8123245 14.16083 -10.650562
6.5507832 13.181738 -45.5
-17.369905 -3.2654221 23.332594
2.3276331 -10.420821 -45.5
-3.9199691 -14.097141 23.906334
-16.953241 -4.3980913 -14.328673
16.552439 -5.3745899 6.4787178
4.9211988 13.914722 15.547554
-14.11855 -8.8194342 12.64987
-4.4830728 -2.5047386 -45.5
11.381453 11.166031 35.019753
-12.908929 -9.9482307 -15.294507
5.5465374 9.4032125 45.5
-2.3177166 14.347411 44.776321
16.657848 5.0697565 -25.094002
13.399724 5.0468955 -45.5
-14.677273 8.2206497 20.339439
13.929919 8.9976139 -44.374672
-4.2531824 -14.037775 -3.8781815
17.244724 -3.5982718 -1.2759132
9.4551468 -12.245637 33.073875
0.092916749 14.471451 41.574608
-3.0170679 -1.6422486 45.5
1.0813338 -14.426332 3.4574642
15.47963 -7.1707392 -27.477684
-2.0841391 -14.36967 -30.26239
12.977692 9.922636 -11.118809
-13.03392 -9.8417358 -13.082287
-4.8215065 13.930367 8.3081598
17.154499 -3.8323083 0.091552734
6.3401766 13.533463 -38.123962
-5.8476896 13.696024 14.904065
7.4703107 -13.135862 -33.175941
-11.746458 10.87571 10.731812
-5.8801155 -13.646421 40.344902
-16.310711 5.8001795 -13.192184
-11.318564 5.865551 -45.5
17.067671 -4.0575323 -19.882332
12.439167 10.342121 -32.520233
11.954119 -10.731184 4.2427673
-6.8226395 -9.302289 -45.5
17.027132 -4.1626854 -30.990625
-7.0092235 -2.133229 -45.5
-7.6775455 -13.075113 19.91115
-10.056166 11.950225 -14.673332
-15.736246 6.8337288 8.8420391
-9.5547218 -12.216908 -29.202583
-14.2599 -2.5455575 -45.5
11.409038 11.144543 -22.304474
9.8369799 12.061302 34.664314
-8.811758 -12.556575 21.654449
17.558741 2.4106472 -44.364693
-1.2404884 -14.416025 38.150826
-15.923623 6.5297737 29.156166
8.9620981 6.8596039 45.5
4.9766541 13.899821 -44.636532
-14.684502 8.2111816 -21.157736
8.2475338 12.820206 -32.442406
15.439088 7.1841102 -3.8388214
-17.822254 0.70328474 0.078399658
12.608718 10.21005 35.503212
16.876293 4.6005731 40.607124
1.7054904 14.44172 -42.612633
-17.200878 3.7316389 24.934338
17.720594 -1.4650161 -20.259216
6.4555068 -9.3253746 45.5
9.1095047 -10.839292 45.5
8.7740088 12.400018 45.5
10.22952 11.835522 7.5970879
3.1604497 14.238861 -6.440011
-15.155498 5.9851189 -45.5
17.38866 3.0437331 -8.1375008
-5.7672496 9.7098026 -45.5
7.6547594 -13.076439 1.4299507
3.6308928 14.17284 -3.0626707
14.424506 -8.4530249 43.392776
13.50129 9.4480276 44.508736
-2.9671543 -14.266903 42.14093
-16.263168 -5.9035406 36.129959
13.984188 8.940587 22.890564
17.590326 2.2930808 13.72051
-10.030242 -11.973694 20.010136
-5.8890562 -13.643652 5.8138762
-7.1698503 12.398692 -45.5
-11.589611 10.987247 -4.0059624
10.70453 -11.542412 38.312263
13.876741 9.0534935 -14.900025
1.8423817 -14.376245 19.710838
-12.24446 10.521572 -41.718155
17.054722 -4.0911179 15.019531
11.046491 -11.320413 -37.961853
-14.497032 8.456707 -33.210442
10.939719 -11.389729 -24.815531
8.5410671 -12.676636 34.072617
1.4493759 14.446442 30.076912
-8.3822384 12.804177 -9.2350874
-17.411549 -3.0691602 -30.573631
-5.5723314 -13.741751 29.065207
0.89929175 -7.8726897 -45.5
-16.062506 6.2680035 -35.135796
-16.067667 6.2582741 -20.891815
-13.31785 -9.5998192 20.029972
11.906668 -10.76199 23.244385
9.8469286 -12.060907 34.706856
-17.309311 -3.5157733 -24.712051
16.219265 -5.9324055 5.9362183
-4.9338379 -13.916504 -37.792023
-16.921942 -4.4756556 43.343971
-1.7794731 -14.38641 -38.509529
6.6946917 13.438209 28.150093
-17.613901 -2.115422 15.981403
9.0386295 -12.442029 37.149353
17.797718 0.39613158 41.532516
-17.794189 -0.46090087 -30.656639
-14.873731 7.9633532 1.2873478
-8.8423443 -12.542591 -3.1485977
-12.021518 -8.1142521 45.5
-8.2974682 12.835128 0.46691513
-13.743512 9.2026348 -42.507057
-14.726387 8.1563253 33.881779
-3.6549008 -7.4696913 45.5
11.31569 2.2361772 45.5
5.9145451 13.647823 27.600487
16.523186 5.3589811 22.406626
15.854555 6.5804968 -1.9865036
1.1394597 -14.422506 -23.750717
0.96152097 14.455437 -28.072329
-6.411202 13.523825 -42.578819
11.631454 -10.940657 -41.16745
14.430081 8.4720325 -25.942177
1.1983323 -14.418632 -22.404785
13.023439 9.887001 -32.11232
-10.722717 -11.536269 -6.9018736
1.2882614 -0.13801336 -45.5
3.089458 -14.251528 -6.30269
-9.5931721 -12.199328 -25.392626
7.8524976 12.982319 7.1813774
-8.5643396 12.728258 -23.168983
-5.9249926 9.9758301 45.5
4.4718513 14.035456 4.085022
-4.6947241 13.95932 34.176853
-10.23445 11.857244 -25.631063
-17.360134 -3.311481 -23.567474
-16.185507 -6.0292807 32.335144
-14.697083 8.1947041 13.575027
11.580877 -10.973492 -10.382278
5.6418314 2.9140911 -45.5
15.668911 -6.8538351 -41.956856
15.162277 7.5862732 0.30722046
1.4095771 4.1012044 -45.5
-16.408531 0.14208019 45.5
-17.135456 3.9318399 33.533264
15.10631 7.6675863 -15.632164
0.6841315 14.460552 25.019125
-11.697405 -10.920578 41.880527
-16.940405 -4.4299021 39.442123
9.712101 3.6379004 -45.5
-17.51944 -2.560648 -40.059486
0.39823627 -14.471286 -13.089767
-13.452924 -9.4847336 -22.138147
-12.79056 10.115295 -8.9668159
8.4162397 -1.2215033 45.5
-9.3175974 -12.325315 -2.3366356
15.993135 -6.3110032 45.196793
5.5868034 -13.742672 -32.760288
-3.7385631 -13.263916 -45.5
-14.623882 -8.2361803 17.495522
0.3815448 14.46613 44.361206
-16.618666 5.2197371 -38.599731
-4.8251419 -13.935869 -12.000298
-5.3193016 -1.8265066 45.5
-8.0574598 -12.901424 36.707542
1.9975454 14.402058 -2.8674545
-10.254598 -11.831972 -30.026863
-15.076389 -7.7138977 38.542816
-13.625395 -9.3377838 18.048239
16.496353 5.4166174 -11.773527
-17.58493 2.3766446 -1.473011
8.7822285 -12.562925 -32.840866
-3.887557 14.143648 -1.7466011
-8.2590456 12.849156 -16.987267
-11.627227 -10.964908 -19.331888
-1.0646259 -3.3650002 -45.5
3.4313092 -14.186739 -19.330582
11.507575 -11.021079 -38.329086
13.499115 -9.4184151 15.155094
-17.772909 -1.0848273 30.874933
8.2823267 -12.798635 31.371712
15.702606 6.8012552 -44.807182
1.1587936 4.1019158 -45.5
-0.93520457 -14.432799 9.1465235
-17.755339 1.1750975 32.73613
-12.443974 -10.344385 -37.735878
-14.919216 -7.8953075 -5.4425278
-2.0357111 14.376355 7.1313643
14.226254 8.6862183 -7.2020588
0.46364376 -14.466982 -22.558193
-15.28619 -7.4717474 -5.3034363
-14.054828 8.9044819 -29.334404
16.82317 4.7146702 16.822639
1.3941944 14.447459 22.824863
8.7118225 -12.596123 3.5569401
15.302113 -7.4109349 -15.959711
0.56681818 -14.460192 0.8566103
16.480085 5.4515567 -23.770514
-16.23752 -5.945065 -2.765274
-1.1855561 0.79498148 -45.5
-16.972708 -4.3498588 12.408867
12.954556 9.9406586 -12.942204
17.11552 4.0604358 -37.976143
1.6233557 14.443233 -13.487037
17.640081 -1.8767325 -14.760685
6.5380993 8.1134615 -45.5
-7.4436526 13.146866 26.73126
-12.793228 1.5722607 -45.5
-5.3192034 13.816711 37.76825
-9.0818691 3.0535073 45.5
-13.209307 9.7142544 1.2730598
11.060022 -11.311627 21.611145
-4.8813534 -13.925854 19.34465
-16.896231 -4.53936 -42.410805
16.228998 5.9908419 24.024818
10.348663 11.766993 -16.888243
16.491146 -5.477212 -23.318068
-9.9495449 -12.024668 -30.909803
-0.32541397 -14.466304 -10.857277
2.8864589 -14.290001 38.238087
-17.498816 -2.6578474 6.3029819
-16.658875 5.1439505 40.465405
17.163416 3.8821568 -20.364563
17.690552 1.6179208 -38.831684
12.193009 10.533867 -22.445795
15.583206 -6.9973259 -7.3311863
-15.557203 7.0682182 32.021835
13.56315 9.3830223 -1.0962753
-4.348546 14.038375 17.536077
-12.137009 10.597984 -0.58777428
11.209263 -11.214742 -29.5455
-8.3121233 -12.784996 45.374779
-2.8575656 14.292004 -2.4647226
0.87567449 -8.3415241 -45.5
2.2694054 14.363907 17.557392
-6.2626686 13.578056 -31.16597
11.321964 -11.141575 41.596375
-2.5132713 -14.34609 37.394066
6.0155931 13.620674 -41.696892
-12.737103 -10.09463 -44.828239
15.136456 -7.6076393 -16.028233
-16.866053 4.7534556 40.680176
-17.781891 -0.82148254 26.418678
-17.384195 -3.1980867 -32.817509
0.16015002 -9.5215788 -45.5
-17.369936 -3.2652833 39.383366
-11.636183 -10.959249 -11.28384
4.6574087 -13.954363 4.085022
-10.437749 -11.716278 -18.895271
-13.330866 -9.5887308 -14.000417
11.939083 -10.740946 11.266033
-12.374514 10.429088 28.156517
-7.6067252 13.087326 -30.374054
3.70046 -10.158046 45.5
7.5522194 -11.735689 45.5
-9.4658566 -6.1218839 45.5
-16.364456 -5.7395449 -18.844751
-16.702305 -5.0199013 7.9875731
4.5192933 -13.980539 21.844208
8.4921417 -12.699704 10.965263
17.772192 -1.1168746 6.0492187
-10.150242 -10.053715 -45.5
-17.444069 2.9874303 -40.999504
-16.873432 4.7336726 -4.0289307
-14.412605 -8.4800367 37.636707
-2.604511 -7.7566147 -45.5
-12.833403 8.7995977 -45.5
-9.7602673 12.104545 -31.100014
10.905686 -11.411821 -14.452532
-5.5015583 13.775069 -1.9845829
-7.2548275 -13.220631 39.30151
-10.780097 11.562908 -44.898155
-17.063568 -4.1247129 41.372166
-6.3566456 -1.0983186 45.5
-17.623133 2.1072819 -41.676132
17.670435 -1.7215151 -20.044865
11.463395 -11.049761 0.12202835
-12.610969 10.26094 -13.637139
-17.547459 -2.4285753 -7.4374046
-17.734301 1.3234417 -17.483204
4.2365217 14.08785 35.832428
1.663633 -14.38801 -39.679996
11.823242 10.821898 44.533997
16.92498 4.4960022 -32.252319
-12.687929 10.206212 36.688984
-17.677315 -1.8165303 -11.457142
-12.798613 -10.042223 45.106194
2.8231714 14.286193 2.4052658
11.108986 -11.279841 -22.1579
-4.2612572 -14.036336 38.084412
12.467427 -10.321167 -27.50028
-17.699913 -1.7100228 40.996933
17.17519 3.8383331 41.951096
7.552917 -13.109249 -3.4313564
-2.9668634 14.280787 0.012244225
-8.0324287 12.931897 42.0909
2.2495103 14.366699 -40.473656
8.0741367 -12.896798 18.869228
2.9493291 -14.278086 26.333902
-6.2189145 -13.541486 -34.186867
16.58881 -5.2996473 45.348526
-16.353155 5.7201781 -3.3973083
7.910531 -1.910624 45.5
13.569307 -9.3569946 2.1434212
-17.424088 -3.0100601 -43.849319
-2.8431234 -14.289001 -23.466286
-4.0522442 14.106041 -37.12336
-5.050416 11.582954 -45.5
2.9873691 -0.36286068 45.5
-15.415642 -7.2757707 -20.606167
-9.0339403 12.483347 -39.902802
-11.436392 11.096204 16.075266
-9.398571 12.29318 -21.222155
15.896544 -6.4727206 -45.407166
3.8539112 2.955821 45.5
-16.052809 6.2862797 3.1947403
13.921978 -9.048398 -7.659687
-5.3514991 -6.2234511 -45.5
-2.1304266 9.9832134 -45.5
-8.1833973 12.876777 -3.2671328
17.632944 -1.9132214 28.815928
-7.2971411 13.200359 5.1934395
16.676643 5.0293846 25.526176
17.708094 1.4179385 -34.368401
-11.682293 10.921339 5.4093919
14.805976 8.077034 -42.302673
17.296669 3.3861489 37.271568
15.665703 -6.8592067 -7.5403929
8.0973396 -12.885858 -39.946106
-15.621511 -6.9424481 -7.1772108
-15.955943 -6.4009686 -32.922562
17.480133 -2.6946499 -35.429176
1.7908374 -3.7973583 45.5
4.584599 -3.355799 45.5
17.325649 3.2782784 -7.7365665
14.087254 8.832283 35.095039
-15.542061 -7.0710883 8.9238615
14.754339 -8.0613747 -37.255676
8.8233881 12.583889 -22.510408
-17.83009 0.59170723 -24.077501
-16.35935 5.7085018 -30.620125
12.514019 10.283816 -17.156185
14.9384 -7.8428164 -13.626522
7.222578 -13.215675 -28.861559
4.5908828 14.003473 29.158592
-14.57122 -1.3000677 45.5
-14.894235 -5.7997746 45.5
-10.225836 -11.850141 10.382469
14.525493 8.3717718 -17.122478
16.918114 -4.4454632 -18.966051
5.5504584 -9.3013802 -45.5
-3.0256534 13.190315 45.5
8.3567448 12.775388 -30.660007
9.1079311 -12.409353 -12.701332
15.59197 -6.9826531 28.2162
-12.168947 10.575269 -39.671677
9.7682142 12.100856 9.4840164
7.497735 11.296188 45.5
-15.434303 7.2291784 24.610226
-10.900476 11.477304 -19.611938
-17.575771 -2.2951367 36.248962
11.492517 -11.030853 14.148884
-3.8623357 -14.10741 -10.144203
2.4284968 0.2567358 -45.5
2.356225 -14.34243 35.022896
14.773386 3.0075855 45.5
14.055093 -8.891674 -37.210087
-12.39959 -10.3822 -11.115789
-14.22696 8.7396269 37.345184
-10.183784 11.883667 13.401102
0.91182649 -14.437487 -32.75967
13.906828 6.6531744 45.5
7.5528002 -13.109287 36.738602
-7.8694763 -12.987366 40.754978
10.249834 -11.837598 12.184628
-3.818469 0.078482151 -45.5
-17.316614 3.3774638 1.2952595
10.081125 0.84590387 45.5
2.0553653 14.393944 14.394108
-10.492281 -11.681831 29.762573
-2.171082 14.36246 17.719074
5.8323689 -13.663557 -36.008194
-7.7145452 -13.058198 41.877441
17.408915 -3.0588322 -22.507309
15.716578 -6.7740297 15.489195
4.7803211 -13.931067 -2.2524376
17.488358 -2.6525886 10.596387
2.0918267 14.388826 19.996986
15.610834 -6.9510694 -7.9768281
10.61376 0.57141733 45.5
2.1851487 4.9637299 45.5
5.971745 -13.618654 -8.8076429
17.423023 -2.9866786 -10.897803
-6.5316377 -13.444625 -40.009262
-2.9819226 14.279241 -26.862123
-13.910656 -9.0593853 -5.9942207
-16.980837 4.4049978 -25.889952
-17.144196 -3.9249241 24.864433
17.722778 1.2504984 16.353607
16.210386 6.0308189 26.689043
14.088462 -8.8520527 -7.5100451
16.416973 5.5871139 -33.797146
12.041144 -10.674688 -5.665287
-17.133934 -3.9503496 -31.56707
-1.7684195 14.403789 27.84779
-14.593739 -8.2709723 25.752001
-7.1064444 -1.8176594 45.5
10.127918 11.89396 -27.066868
1.8213942 -6.8264532 45.5
10.328357 -4.4570827 45.5
14.351257 6.4658709 -45.5
4.3275423 14.074229 -29.68264
-11.479815 -11.058025 -27.605673
-2.4254329 14.336355 -40.308708
-17.408676 -3.0826983 23.752333
-3.3565061 10.387986 45.5
3.654875 -10.564922 45.5
-5.3680773 -2.2956729 45.5
-4.8702683 13.919233 -19.085846
7.6809101 10.807685 -45.5
-17.476482 -2.763114 29.837275
-16.954004 4.4871049 45.024651
17.479382 -2.6984859 -18.610968
-10.382833 11.779858 -35.164001
17.485722 -2.6660709 12.752954
-8.6900377 12.662703 29.531578
12.138531 -9.4488449 45.5
10.068011 -3.5248151 45.5
-2.1596572 -14.36552 25.887917
-4.5441613 13.993704 24.054142
-6.9892979 13.312756 32.800041
-2.2545347 14.353896 45.388737
1.3915296 14.447508 15.414883
9.9566803 11.992454 -4.7340755
2.2862954 14.361536 -39.643745
-14.720363 -8.1248236 21.277187
11.90884 6.4163704 45.5
-3.0954378 -3.4516559 45.5
11.773336 10.860772 43.259056
16.874083 -4.5596771 10.225334
-15.935133 6.5080795 -24.075684
-5.1530166 -1.2799819 45.5
13.72051 -9.2246876 -8.7334633
-11.984649 10.706329 -24.965347
-9.6611671 12.156229 -27.429159
-14.23799 8.729064 32.014381
7.9231682 -12.967981 -41.675327
-17.393589 -3.1538024 -10.54337
-6.8693452 -1.9992929 -45.5
-15.921735 6.5333304 34.800446
3.7233849 14.159861 3.4321861
12.472526 -7.1045146 -45.5
8.2206011 12.831258 -39.609859
-0.44296941 -14.459845 19.030928
12.68261 -10.132879 -27.286764
6.294836 13.545644 6.3381071
10.865784 8.4950294 45.5
-1.6373445 14.41724 -39.616768
-15.102656 7.6635313 36.535439
7.1918759 13.238778 -45.5
13.146214 -9.727212 -40.715393
6.6202374 -2.3201404 -45.5
10.570744 11.639256 -37.836315
-17.72451 -1.5940994 -27.557264
16.785133 -4.7904019 -18.222115
-2.4912524 14.3296 10.349115
15.508709 1.9456531 -45.5
-4.3204184 14.0448 36.635643
-17.20569 3.7169089 -1.8987923
-8.4301643 -12.731031 -19.575058
-10.011801 -11.985343 12.710117
8.4196663 -12.733877 23.768082
-17.811197 0.037806034 6.0381641
-9.2926826 -12.336706 44.680195
12.529704 -3.1934762 45.5
-2.7886393 14.299077 3.6988397
-8.1612186 12.884874 -33.078697
15.913239 6.4952354 24.682995
-11.776463 -10.870638 16.718002
-17.209366 2.2433286 -45.5
12.253185 -10.508636 -28.597017
17.660679 1.9584887 20.068329
5.7305207 -13.696369 -25.029194
-6.2782497 -13.523107 -1.7647657
-11.691417 -10.924359 17.388735
-15.341766 6.2480764 45.5
-6.7535958 13.398813 -39.453308
-14.770409 -8.0670614 28.52803
-11.785823 -10.864727 0.61230659
12.625009 10.197359 -17.647829
5.875556 13.658298 14.061969
-7.816422 13.010763 -36.913574
-3.2985578 14.246743 32.148308
4.7545724 13.959493 30.425667
-16.72912 5.0115509 -22.266922
15.36215 -7.3396444 -7.7064648
-17.772358 -1.1009662 35.403751
13.014859 -9.8421516 -27.820148
-7.8109503 -13.014123 -37.620422
9.7885618 -12.088428 12.660164
-7.5630169 12.195944 -45.5
-9.2238264 12.384315 -15.333988
8.4647903 12.731049 -5.037837
-3.7252555 -14.131834 -22.833265
16.614868 -2.8418884 -45.5
17.800367 0.36594769 21.787336
17.802856 0.3375569 -23.939732
-8.3724842 12.807739 -2.0043983
16.308037 5.8210845 42.111328
-2.9281425 14.28476 -6.8224726
15.911348 -0.3246516 -45.5
15.65976 6.8635063 -20.603525
4.4232159 -10.370249 45.5
-17.67218 -1.8407359 -6.7913742
17.383736 -3.1875865 1.3960481
6.702548 -13.383213 7.9504929
15.352646 7.3096957 24.242569
4.2400408 -14.033463 30.380714
0.65426505 -2.8017654 45.5
-10.016674 -5.642467 45.5
7.1047153 -8.5087214 45.5
5.5577898 -13.752018 -28.437346
-1.2934132 14.45254 1.4448128
-12.042442 -10.686499 -10.418025
-2.5305743 -3.2912445 -45.5
-3.6714501 14.192999 23.147827
17.821774 -0.17746504 -7.2115421
12.632122 10.191818 -35.559769
10.333644 -11.783189 8.1239147
-0.97449291 14.485273 25.47982
-17.224455 3.6594858 -44.082359
-0.90194416 -14.434627 -9.5913124
-17.378071 -3.2269495 -11.700615
7.4052382 -13.156826 -1.3588524
-14.713459 -8.1327915 14.214492
10.567241 11.64127 -37.417877
-3.8726611 -14.105572 -15.313214
-3.4214971 14.234125 -22.721436
7.674336 13.055431 44.410408
-14.883934 -7.9360294 14.958636
-17.269354 -3.6147823 22.517906
0.62822467 -14.45615 -20.594667
-10.233499 11.85774 0.40088463
16.676048 -5.0733562 2.2062216
10.081562 8.768487 -45.5
14.29072 8.6184759 -17.76787
6.0662327 -13.588214 -11.355318
9.3266449 -12.306227 -27.277966
0.57966232 -10.968149 45.5
17.277739 -0.997208 45.5
-14.686888 8.2080574 -15.385891
-14.888121 -7.9311972 45.087994
17.088007 -4.0047803 7.9292107
-14.613976 8.3035507 21.328125
8.6213455 -12.638783 16.760838
7.9958291 -12.933721 42.636185
-0.4317154 -14.460463 -5.7443342
5.9671745 2.5618238 45.5
-12.717327 -10.111479 -35.379883
15.850143 -6.5504074 -9.8348207
-12.315243 -10.454066 7.0223293
10.472729 -4.989316 45.5
4.6865873 13.977759 28.524605
-6.1501255 13.50823 45.5
1.5568333 14.44446 -18.077339
-16.435266 5.5654135 21.945786
17.302784 3.363389 -29.261677
10.724251 -11.529609 11.276037
-16.749784 -4.9022512 29.859543
11.723469 10.899616 -35.281887
-5.0488806 12.533908 -45.5
-13.105221 9.8139391 -39.953094
-16.545441 5.3577552 -42.736481
13.334709 -9.5622749 30.329073
-1.3197387 13.06568 45.5
-11.978557 -10.740931 15.75514
-12.250029 -10.509629 -7.0412884
-6.8416157 -13.348617 -33.372421
17.395348 -3.1282082 17.89699
17.760908 -1.2588698 5.3258171
-10.544084 -5.4937973 -45.5
-17.792294 -0.51641977 -44.082359
-15.053296 -7.6782074 -45.5
16.574902 -5.3357162 24.44701
-6.8807759 -13.336487 29.064146
17.756695 0.86385411 5.4643879
-16.378998 -5.7159977 -43.59156
17.577543 -2.1965256 -41.668903
2.9873533 -14.27088 -39.551216
-7.9443822 12.964044 -5.2903748
16.203129 6.0464106 13.923916
13.166674 -9.7093086 -41.307621
-4.175055 14.077995 13.08016
13.330545 9.6274481 -25.061317
-17.742008 1.2690927 -13.115047
-13.306354 -9.6096153 -41.586212
-1.4052883 -5.2969785 45.5
7.9008307 12.962483 -9.7375002
2.6841409 14.305704 21.849838
-7.4106593 9.5703812 45.5
12.731684 10.114265 10.645617
-1.7564458 -14.387675 -20.834694
-14.420637 8.5541382 -1.0118713
-17.750267 1.2108585 13.220821
-17.79018 -0.57845461 37.56311
12.361413 10.402689 13.50139
3.380275 -14.196411 31.691576
17.79834 -0.62148207 -26.025423
7.0068879 -13.285164 43.57312
11.500874 -11.025429 10.614548
-12.629284 -10.186495 -23.244385
-14.149661 8.8136578 -35.997749
-14.956537 -7.8522305 -38.330353
-14.77898 0.83355188 45.5
16.829973 -4.6740909 37.708542
9.3070631 -12.315459 -41.42358
-17.762506 -1.3897941 -39.757965
16.734375 4.9053898 35.206276
14.178532 -8.7451019 -18.018047
-17.786861 -0.67566794 -42.050735
-14.769813 8.0994511 27.161396
10.043065 -11.968427 -24.266876
-5.2461805 13.833387 -22.590591
9.1802444 -12.375256 2.5185509
-14.725506 8.1574802 -25.581306
-4.8067212 -13.939152 -5.2561607
