# .PCD v0.7 - Point Cloud Data file format
VERSION 0.7
FIELDS x y z
SIZE 4 4 4
TYPE F F F
COUNT 1 1 1
WIDTH 1606
HEIGHT 1
VIEWPOINT 0 0 0 1 0 0 0
POINTS 1606
DATA ascii
-20.973732 -1.5825748 7.4774761
12.828499 -5.9767132 17.313921
-17.664957 -15.293294 9.4693937
0.14376351 -9.6425028 20.981447
-6.1720343 -27.5 -7.3463964
0.00036591585 2.7789612 22.999664
21.39217 11.779561 11.777816
-22.304184 27.5 -10.008587
19.535089 16.908478 -16.007553
1.7687063 6.4420462 -23.505562
-1.7471406 -27.500002 6.3513093
-19.833769 3.5130005 -11.805122
15.393535 -7.070488 -14.824514
-17.019823 -7.15312 -12.903625
18.839184 8.8947372 14.831397
-21.183254 -8.0304165 1.4450122
2.3385663 18.827131 25.462851
-18.855774 -17.178204 -5.8414459
25.142231 22.483967 7.1960855
-8.8781157 13.968711 -23.13168
-8.7142849 27.5 11.406073
-20.348808 4.8974447 11.372707
22.162878 27.5 10.078054
3.9334283 -27.5 13.261931
-13.590505 -24.454887 -12.649983
12.631063 27.5 -20.795694
-13.421471 -14.160534 -15.151714
19.95224 -3.8745441 -8.9984169
21.834492 -1.8322697 4.2508726
-17.562538 -9.2100029 11.565254
21.754967 16.827147 -12.784487
-13.983755 -27.5 -4.7992086
-26.573856 24.944916 -0.78069985
-9.4987564 -5.9935827 19.375633
-21.63126 -3.5490456 3.7155445
10.136114 15.537321 22.882549
-8.2451487 -2.0866261 20.590645
-12.446959 -3.7918873 -18.034151
15.339737 7.7577419 18.1803
20.597773 25.768894 16.964737
12.105711 -3.2984333 -18.348221
16.008823 -4.0842247 -14.883632
0.0026214728 -7.7553291 21.294899
-8.1873903 -3.5942554 20.350634
10.995973 -15.895248 16.664677
21.326122 26.904835 -16.329557
16.983002 -8.072052 12.738497
20.308973 25.120697 17.138119
7.6795654 -11.139637 -19.252495
-25.270975 23.154644 7.1324997
-13.04818 -10.169407 -16.289854
-17.466053 13.855392 -17.542688
5.2631207 27.5 23.302296
-21.346827 23.92898 15.515907
-26.477692 25.08884 -2.1719878
4.7276936 20.495014 25.389969
14.255877 12.590401 -20.017685
-19.134916 -20.608692 -1.3915111
0.41496527 27.5 -7.5427265
15.637882 24.926937 -21.49646
-19.138262 -17.159603 4.8442955
15.355913 17.626827 -20.203575
-25.419079 25.730169 -8.0741978
-18.064104 -27.13287 -1.541984
-12.964439 27.5 17.79118
14.224651 -21.880424 12.564615
8.0395622 -9.7616119 19.331425
-7.6772337 -15.320898 -18.536116
-19.415112 4.8741407 12.887097
18.404778 -1.7237978 12.476206
7.3482189 14.849297 23.806278
-18.35005 26.532677 19.53447
-23.242968 5.1665678 -2.2226098
-9.3934517 -4.5398226 19.675108
-9.4745941 13.621819 22.826157
-2.9337354 19.229912 -25.451374
-6.9389319 -19.328053 -18.112194
19.924715 -8.0029793 7.3129158
-13.076097 14.731701 21.203939
-10.332012 4.1558886 -20.755466
3.9640918 -5.4807234 21.263248
2.4620712 27.5 -24.171486
-7.6313057 -6.3810091 20.096872
-15.542324 -14.628006 12.833116
-19.316532 27.5 -16.688276
17.58252 -21.287983 -7.4153233
-24.115719 12.46072 -4.4861817
-22.374287 23.469883 13.881892
11.682805 -16.246956 16.09543
24.54406 22.853432 9.1882496
9.1486692 27.5 6.759232
-0.61282736 1.2936027 -22.741821
13.758737 -27.5 -1.7903095
-16.325424 27.5 17.739317
19.995029 15.154427 14.981402
17.16094 -15.749279 -10.211327
-12.107363 20.131121 22.75279
-23.231663 10.358041 -6.769814
-20.41379 -2.0257468 8.7183361
-1.8595217 -27.5 6.6958504
-3.2012684 -10.74744 -20.545933
20.480919 26.611797 17.307537
17.704836 23.16037 -19.437654
17.995184 -12.907764 -9.7168531
-4.4389057 -17.161671 -19.235168
1.5347641 -17.348801 -19.663673
-14.373686 27.5 10.596794
-7.2388163 15.244488 -23.935413
-6.9015388 -14.764095 18.93498
-23.180212 3.9736142 -0.70111763
18.042246 -23.262264 5.1357503
1.3705842 -3.413414 21.919277
-14.60252 18.706675 -20.969481
-15.656154 -14.891235 12.63681
-19.327858 -19.617931 0.83654875
6.1630716 -24.781521 17.481445
-14.62799 -15.959019 -13.551828
22.977177 27.5 13.97628
12.831361 -1.1846561 18.268778
9.4935656 21.587685 -24.218966
19.763893 9.8089819 13.789461
-21.35252 18.463329 13.943211
0.14712448 21.580257 -26.037876
2.6350036 -4.9677172 21.57737
-1.1770127 -10.300468 -20.849571
7.0344625 -27.5 -11.872432
-21.477108 27.499998 12.982934
-5.0888987 27.5 -14.242838
17.791162 -13.553711 -9.8531027
-6.2531767 -27.5 3.3432403
-19.471703 -5.079834 9.5810013
16.184414 -27.5 -7.6235585
-2.3214164 -21.233082 -18.941774
13.579857 8.0515404 19.569359
-7.5923328 -15.882536 -18.47007
4.8315673 27.5 -5.2420397
18.277395 22.424797 18.700363
-6.9018259 -27.5 9.9968185
7.6303926 -18.370296 -18.028482
-17.754889 27.5 17.447695
0.18217954 -11.479151 -20.68726
20.570902 -4.9264593 -6.9680386
-13.593695 15.141906 20.975199
-0.73859549 -8.8805285 -21.091869
7.0344644 23.056601 -25.302393
16.06109 27.5 11.17454
12.14811 27.5 -20.970287
-23.01965 19.260454 -11.278896
-18.394705 6.7811079 -14.807112
-4.7265263 -6.5864344 20.950016
-18.659452 -20.489571 4.5497031
-17.965855 -12.645324 9.8158245
-24.0326 20.520721 9.4631863
4.1396432 27.5 14.21018
10.956136 27.5 -6.163734
-25.826542 21.597164 3.0824144
13.870877 -13.68186 -14.858735
8.7715969 5.7560492 21.743679
19.135662 -13.028186 -7.1496592
5.5404263 -18.36298 -18.776718
15.762594 8.0869436 17.864391
20.527409 -10.023308 -3.9043126
-22.092216 12.92582 -10.846159
-26.302444 25.729872 -4.4887757
24.893673 16.456947 -3.8977506
0.91132134 -15.74181 19.950581
-22.395361 14.305024 10.750843
-8.2725124 -27.5 9.2822819
-9.461833 -19.201502 -16.978388
14.58087 1.0279732 17.401062
-17.923309 -24.920116 -4.6374331
-12.437963 2.1647701 -19.183849
0.38748711 -27.5 16.113964
-22.886837 9.100317 -7.1735334
23.654228 7.0535603 0.28624311
-3.2353284 27.5 5.9198122
23.062492 25.334642 -13.277754
-9.5829964 -0.21567726 -20.33674
24.804602 14.729803 2.3943927
-7.776875 27.5 16.613844
17.634874 -27.5 2.6958461
6.9335251 -13.722016 -19.075726
9.684041 -26.409943 15.486284
5.1892543 -27.5 -12.588835
24.266914 13.096893 4.2804437
-9.7008066 27.5 5.4470024
-16.836514 27.5 -2.1898265
-13.546548 -27.5 8.0689182
-20.387871 -1.7343397 8.9146709
22.22295 8.9712391 8.9683819
-17.386902 12.851624 -17.391455
-20.724014 -10.9524 -1.1197704
-10.620782 27.5 7.9966955
-14.464966 27.5 -18.735748
0.27143121 27.500002 -24.299503
-9.2101011 -27.5 -12.728226
7.2712183 27.5 -1.3157194
-2.2850661 -27.5 -4.2862315
9.7015171 -15.310547 17.535748
-11.16704 22.193115 23.614227
-13.96503 27.5 18.76454
15.79785 -27.5 -2.8822525
-23.034966 3.4973457 1.8442379
23.104462 13.67191 -8.8937845
-21.288685 -0.66196537 -6.9884214
10.910183 27.5 17.053579
-6.2371922 -27.5 6.6317902
-12.410587 -0.11170173 18.788752
21.998634 11.00384 -10.303616
-25.468657 18.802128 -2.0515056
-9.4961491 -27.5 -5.2063975
-12.085311 27.5 1.5928109
16.735483 -27.5 5.2239408
-19.891235 2.6411881 -11.437078
14.070058 -25.890293 -11.771803
20.518501 -10.31372 3.7757401
15.301613 -13.891866 -13.337864
-12.263282 27.5 22.124798
-14.522809 27.5 11.58036
0.10561049 -19.407873 -19.406437
-4.6420684 -19.846342 18.759012
-5.9208255 4.9389596 22.556751
22.17523 27.5 -8.9061079
-0.60679585 9.2662964 24.014757
23.813925 10.659759 4.6644382
20.24884 17.368118 15.243816
-18.866821 7.5247936 14.447611
-5.7966471 -14.745079 -19.305878
-1.5542154 27.5 -23.56885
25.279953 18.877424 3.7965796
20.18198 9.0453968 12.959475
6.1132007 27.499998 -2.9073975
22.452078 23.286501 13.715639
16.665953 27.5 -15.880383
4.1355186 7.6616502 -23.423033
1.7880751 -0.96522331 22.291565
16.429865 27.37998 -21.360777
-10.740816 24.619905 24.219982
-13.727239 -17.509636 -14.119239
20.209547 24.987785 -17.270376
15.407043 27.500002 -17.452076
8.5071039 11.730963 -22.880215
-3.2587855 -26.008602 -18.042198
-24.237253 20.125221 8.7614365
8.2977486 -14.614425 -18.376518
17.315235 -18.777763 8.9259129
-13.723398 27.5 -20.006327
11.38455 27.5 -14.855119
-20.092991 -12.889481 -3.7166195
5.5134063 -10.999616 19.992729
13.783627 -27.5 -10.869895
7.1071482 27.5 -9.097393
1.8559121 7.6681261 23.684719
4.7887063 -21.794353 -18.385427
6.5440502 27.5 -14.88187
-7.5591478 0.96179485 21.406042
-18.463816 13.064796 -16.33275
13.090623 15.941908 21.420273
5.928617 -11.598229 -19.798569
19.295929 -16.937782 4.385417
-9.5350599 15.865347 -23.22261
-9.7985992 11.454697 22.309141
-21.666252 27.5 -10.314037
6.0106273 27.5 17.573402
22.093569 7.7203703 -8.8188066
7.815856 16.126436 -23.880806
1.9205006 -27.5 12.300566
-18.252569 -24.569366 -3.297806
17.141167 2.9701509 -15.353724
17.990261 -15.501602 8.7807627
12.610992 7.9509516 20.208525
10.744513 -18.414276 -16.320164
8.5076685 27.5 7.3133926
-1.7178407 1.2310114 -22.664009
-20.371117 -9.1558952 5.2403302
19.205881 -14.914096 6.0140409
-10.175932 27.5 24.520189
-5.3396006 -24.925396 -17.722727
18.419865 22.617903 18.61195
8.4659719 -18.857231 17.55596
-19.87532 -13.965401 4.070127
-9.8908319 27.5 3.1516526
1.9481364 -22.869751 -18.718456
3.7149746 -27.5 16.351236
7.4892263 -15.394566 -18.590559
16.690098 27.5 17.292879
4.0688782 -10.465403 -20.431892
17.1059 -27.040699 6.0756922
-5.1709371 27.5 -0.13715327
-3.0821576 25.954273 26.56982
6.5935373 -20.386547 18.079029
-15.075591 22.804657 21.428728
-3.2279828 27.5 2.5723636
-23.078379 3.8074846 -1.5731144
-13.289097 -10.873524 -15.945915
-3.5957656 1.8902783 22.535507
17.925865 -23.556927 5.391243
8.7716484 -18.622902 17.446308
11.782036 -11.072681 -17.063267
10.195461 23.609226 24.273188
0.21922679 12.41803 24.546928
-15.617401 27.5 -15.530863
-20.665287 -4.1630402 7.1206627
12.091325 -19.683151 15.112444
6.4358354 -27.5 10.246023
2.0141859 22.672182 -26.116644
-24.661427 15.162757 -3.9911122
-5.6033831 4.2573972 22.535202
-22.014109 27.5 -2.3488691
10.394644 8.0635166 -21.428143
22.06608 4.9222116 7.5683055
-10.537564 -22.442741 15.690249
-24.468323 27.186804 11.281653
-22.721737 5.055253 5.3287487
-22.035782 27.5 -13.607128
-20.172487 -12.524997 3.6721153
19.176041 7.5947533 14.015416
-0.71440959 -27.5 5.6135945
5.4914341 -27.5 12.322285
22.513412 0.81663275 -2.5045111
10.407797 -27.5 1.9952734
-13.506345 -27.5 -2.3616579
-12.263601 27.5 19.084143
-8.5735531 6.4937572 21.956758
23.035234 18.05835 10.837501
-0.20642628 -27.5 -17.17502
7.8503914 22.171085 -24.905321
-13.125405 -5.3451071 17.224335
-11.020055 27.5 16.670748
-22.7892 1.8278809 1.002214
0.16223942 -27.5 13.157841
7.2340522 6.9786434 22.514584
-9.8826256 -2.0148611 -19.865524
3.3268337 27.5 12.472713
15.661375 -1.1162963 -15.929131
-9.5854559 6.3913956 21.511173
17.553717 27.5 5.2034535
-23.168943 26.499075 13.50617
-19.024879 27.5 -18.138023
-7.7516289 -0.14274311 -21.113075
-4.6114836 -0.35521889 -21.982635
1.9035065 10.806966 -24.199892
-7.5167184 23.238216 25.169285
-4.6685901 -27.5 -10.442393
-22.099813 15.253198 -11.720212
10.397476 27.5 1.0848023
-20.502184 7.2295394 -11.859393
-11.888611 21.728554 23.172709
-6.733428 27.5 24.061905
1.4563558 21.196186 -25.938324
-3.7687562 8.8943806 -23.67486
16.371315 -20.436829 10.094029
8.9306965 22.11727 -24.510639
-22.459328 21.274065 -13.007647
9.8134956 27.5 17.941582
-6.5759048 -23.39938 17.558065
18.97229 26.778387 19.017263
-9.1208439 1.0803318 -20.797279
-18.501587 20.329237 18.035086
-19.302357 -18.171352 -3.3217211
3.8968735 27.5 20.193525
-23.993729 9.0384331 -0.36839354
10.653584 21.179428 -23.662022
-20.187141 -11.433575 -4.4363461
3.4832132 27.5 -20.526918
-14.117577 27.5 19.940054
14.850298 -9.8190107 14.775233
11.468896 27.5 15.817838
-4.9358578 27.5 -19.440134
-21.533461 -4.3674293 3.4667253
20.266731 27.5 10.583563
8.0729456 -27.5 15.359799
-1.3614501 24.627422 26.457314
-12.629092 -5.7852192 -17.534304
7.9656391 -27.5 -5.6187267
-15.456797 -8.8018208 14.369141
-24.034184 23.334415 -10.641736
18.64999 -21.195179 -4.0813675
16.435982 -27.5 -1.2802744
-11.673217 27.5 -20.169781
-4.732574 16.377403 -24.72983
16.638882 25.025469 -20.698505
-14.61491 4.4880056 -18.067574
17.445488 -23.864285 6.617888
-23.757515 12.855831 -6.4572506
-15.061725 -20.469372 -11.919956
-15.797162 -18.529739 -11.479376
11.507776 -27.5 -2.6330583
17.226246 -15.165825 10.344973
17.42741 27.5 15.283983
-4.6158595 -18.612896 -18.953312
13.815268 12.859717 -20.352566
-13.064907 27.5 10.607871
16.307291 -19.978039 -10.303984
-12.276724 -1.0272655 -18.674473
26.029175 26.949383 6.6595345
17.32383 12.375764 -17.346043
-25.284113 17.487267 2.1895912
-23.671637 19.780497 -10.053492
-10.692962 26.72261 -24.640575
1.5643067 -23.081902 18.725481
-20.85272 -9.038682 -3.0998459
-22.391178 4.1930552 6.0384121
3.3009567 -4.9634523 21.462818
-5.6697416 -7.8683805 -20.490379
-19.891893 -11.389057 5.6443319
0.6012885 1.2767372 22.722218
0.26578197 -27.5 2.8093901
-25.443535 27.5 -4.2085719
-6.084218 -10.111772 -19.998022
-16.039019 -27.5 -6.4508042
-14.848677 27.5 -8.4103317
2.3264799 27.5 -25.754255
-5.165473 27.5 -17.83227
-15.76298 -24.293835 9.8797445
-21.171677 -3.1390567 -6.053503
-18.293034 -4.2823563 -11.921379
-17.360464 11.779659 17.20763
26.222198 22.774429 -0.66445661
-1.7887706 2.6523199 -22.886993
-20.385378 6.6682472 -11.877496
4.8604364 5.0347705 22.832203
2.6902132 -27.5 1.1027049
-11.917939 -27.5 2.9941087
2.5915103 27.5 15.591483
11.677439 -4.1585207 -18.458282
3.7300258 27.5 1.0506424
-14.123119 9.9812355 -19.601942
7.0677471 -26.056026 16.884266
18.287075 21.328213 18.451021
15.028379 27.5 -17.13451
-11.023165 27.5 -19.990891
24.489529 19.829647 -7.8502502
-2.8123591 -27.5 17.167143
19.624432 -12.214145 -6.0709643
20.818275 -8.4309721 -3.7641919
-15.358496 8.5453167 -18.306259
-16.844784 22.840675 -20.074202
-25.680641 25.326429 6.9541292
-7.5660424 -8.2785625 19.791645
-5.4087429 -27.5 -12.899539
-9.6760855 -5.6751299 -19.308132
-25.140446 27.5 5.3040428
13.002818 -27.5 12.01135
-17.335621 12.149519 -17.281466
0.48282436 -27.5 9.1409264
16.264435 5.9249287 16.929716
-19.640495 27.331131 18.454899
2.3750589 27.5 16.736231
-17.246653 -0.2755661 14.406964
-9.3724251 -18.772778 17.079229
-14.432701 16.186077 -20.594561
21.099226 27.5 7.0897493
-10.944523 9.4153852 21.421329
-8.1003246 27.5 -12.116122
3.9575782 -18.536762 -19.119019
-17.018257 -3.0320091 -13.995943
16.399494 14.824806 -18.76549
-14.673946 14.764276 -20.163839
-16.879726 -26.688347 6.8135219
-17.483671 27.5 0.65022612
4.7310858 27.5 17.89423
-19.436171 11.80106 14.838915
-17.347343 -9.7393074 -11.782429
9.3508005 -6.3733778 -19.342361
16.163942 -1.7597942 -15.262834
15.071569 -9.4006271 -14.615669
5.8170156 -27.5 11.905717
10.312391 2.3018408 20.458494
-19.580526 -18.063087 0.78846222
-17.636124 -24.876949 -5.5702324
-4.0123992 10.464866 23.869259
6.3876691 27.5 2.752809
6.1801882 15.381123 24.238789
24.866398 20.912977 7.2471046
14.563324 -4.5138817 -16.231163
8.0430031 -3.8451042 -20.374046
11.078315 -25.239655 14.738848
-15.759022 2.4693308 16.63583
-5.6405258 27.5 15.483587
-19.49041 -15.869709 4.3243017
-16.913958 -27.5 3.1452003
9.0784578 2.8389926 -21.134722
8.5176134 27.5 -23.482061
-7.6820054 -24.819637 -16.842064
4.4889264 27.5 23.890434
2.7928522 27.5 -24.541265
-2.14832 -26.55957 -18.095472
-17.283794 -15.013908 10.288503
19.651451 27.5 -5.5871515
1.3304461 27.5 15.674929
-22.577303 20.518991 -12.575782
-0.9738881 3.2438583 -23.047092
-3.1877236 12.046658 24.271318
17.860096 27.5 6.220715
-24.464169 13.807763 3.7154779
-7.6722579 -13.937513 -18.775183
12.697975 -18.862465 14.767547
-20.47756 -5.545455 6.9872608
-21.371542 13.251633 12.326528
18.23909 27.5 2.6523504
23.884335 8.5279484 -1.1011367
16.962669 7.2301574 -16.524885
22.971113 6.5035219 5.3003778
-4.692966 -12.662683 19.953613
20.244793 27.5 9.1246939
-2.3591754 -27.5 -4.8408275
16.18281 8.7629633 -17.677639
-26.25099 23.011028 -0.33366448
-4.948741 14.110725 -24.303602
-0.81461763 5.3782997 -23.397034
21.216255 -1.5873375 6.8348622
-21.857399 -3.9940987 0.68206751
5.8099895 12.372192 23.840862
-12.755764 19.134876 -22.238548
14.155653 27.5 -14.850368
-4.9864535 27.5 -3.859385
-12.275114 27.5 -2.9668112
-5.1073875 25.888302 -26.220196
19.567705 -13.234283 -5.7122221
10.820288 -15.989808 16.773436
20.361366 10.946959 -13.2559
8.8080158 -5.7080278 -19.729012
-16.476755 -27.5 4.5810833
-18.424332 -24.347275 2.4103141
-12.700361 4.0157323 -19.370674
-6.84973 -27.5 16.024204
-18.821362 -1.6190586 11.896952
18.46645 -20.902348 -5.0926657
-9.3275824 27.5 22.580309
4.8634791 -5.7551293 21.062613
-3.0661912 27.5 -21.246796
-16.723568 -15.904816 -10.887972
-3.3996441 -27.5 -4.2171426
13.085507 -27.5 11.991933
10.540724 -27.5 5.5819144
11.488248 -14.298016 16.625973
-9.1412878 -11.011604 18.646597
-16.311106 27.5 -9.7763577
19.288635 1.736361 -12.153304
-19.913746 -3.1286125 9.4187222
-24.500156 17.678959 -6.6931648
26.011406 21.603369 0.088963091
14.057238 20.338644 -21.633314
1.9213892 -16.786219 19.723816
-25.980303 27.5 3.6311603
-17.441025 18.783592 -18.710827
20.897308 -0.74684525 -8.1453619
1.3981807 27.5 -15.490607
16.516617 27.5 -16.8242
-18.377071 4.8024044 -14.306489
11.260908 -24.503727 14.753145
-19.856668 -15.465527 -2.6979244
-20.008692 19.286306 16.045321
12.084158 27.5 10.551663
7.0330582 -27.5 -5.6935716
-9.1806755 8.8034611 -22.137732
-12.27601 27.5 18.084103
11.640876 -24.646431 -14.419411
24.442009 13.719821 -3.9001393
18.825783 15.878862 16.569849
15.623478 27.5 -8.3180332
-16.207127 -4.0956254 14.66423
16.215384 27.5 -15.430877
21.74972 27.5 -2.6967106
-0.092964992 27.5 -21.642464
0.29012242 0.55444717 22.623131
4.5622048 -21.231186 18.54929
18.888906 27.5 -1.9868999
16.094517 -15.818596 -11.811025
11.419498 27.5 10.396917
-21.922037 -1.208539 -4.1924133
-11.719087 12.827621 21.617004
16.364101 27.5 13.251619
14.335596 12.59921 19.928417
-10.663126 25.48354 24.404285
1.5766025 -6.1741438 -21.47603
-25.634811 20.470846 3.1373506
23.490341 23.514177 11.863713
-24.292362 23.329155 10.046563
13.08522 7.891964 -19.867733
0.70938349 -16.075691 19.908098
-24.380711 21.820343 -9.2259102
-5.2935224 27.5 -10.764824
6.6687689 -13.056253 19.307198
-20.412525 -0.18401527 9.4928131
-21.601318 -4.927887 2.358547
16.751154 -27.5 -5.028779
-7.0895391 27.5 -24.658772
-19.54339 2.2926846 11.960634
-4.2609239 27.5 24.287922
4.0301094 -9.1894054 -20.652548
3.1898978 26.983507 26.719923
-13.025412 27.499998 16.105154
-19.686733 -15.384168 3.8049192
-3.2253647 22.08993 25.911457
15.799944 -17.08823 -11.857136
12.530877 4.8299751 19.674715
15.149883 27.5 -14.368646
24.232033 27.5 6.1138201
2.7868023 -27.5 5.0419121
8.9237871 10.731173 -22.560049
-24.131229 26.170626 -11.532228
-10.551763 -27.5 -5.1957989
6.2002063 -27.5 -14.13659
12.254079 27.5 -5.3714266
-15.742399 27.5 9.5972538
1.3079097 6.2509642 -23.524155
25.534208 18.91699 1.5949986
4.7209172 27.5 26.115595
-24.598965 27.435991 -11.000137
-0.12364221 -27.5 15.129553
19.170033 -11.037961 7.8998585
-6.8383341 27.5 15.462999
4.6383967 27.5 21.85755
5.3740187 27.5 17.047832
12.633982 22.964594 22.981106
-17.948862 27.5 15.734432
16.381624 18.169743 19.507231
-3.9392052 13.626618 -24.424833
11.208174 26.190779 24.297985
-7.3609266 27.5 1.2155653
10.467711 -18.985756 -16.388308
20.939968 -9.4980659 1.6578207
3.5909624 -18.579853 19.180145
-7.7692404 27.5 -25.381622
10.947079 -1.6903019 -19.400597
19.498304 27.5 13.413952
15.933803 27.5 -17.43848
-15.93002 -27.5 -3.7848616
-12.564528 -12.236222 16.255735
-4.0144701 6.3740683 -23.236828
9.7739525 4.5651054 -21.103512
10.832283 -22.925617 15.379695
10.509604 26.674681 -24.722094
17.336628 -11.914641 11.121515
-13.959361 27.5 -22.259342
-25.703695 23.325516 5.5948472
7.7669573 27.5 10.384416
-5.8001318 -4.6060305 20.985056
18.959053 20.240082 -17.486435
10.93902 27.5 21.192064
-21.079014 25.398922 -16.251606
5.8656845 27.5 17.592905
-21.990734 3.9552422 7.3312578
18.610003 18.023129 17.347866
3.2481446 -27.5 -6.2014523
-21.641266 16.760489 -12.952184
-4.8601842 27.5 -5.3288817
1.062425 27.5 -3.7397034
21.804821 0.59730625 -6.0582438
22.911539 10.472692 -7.8149824
25.056028 22.768353 7.7047529
16.682083 -19.85928 9.7514601
23.514404 6.3468266 1.1823609
-20.224871 -13.705215 1.968024
5.6835642 27.5 21.729645
-14.107715 27.5 17.619167
-19.525387 24.909761 17.990391
15.989216 -21.321087 -10.411285
15.992654 27.5 -3.1232343
8.2559404 -22.073429 17.080633
15.227835 -11.997375 13.845029
-15.122015 27.5 16.436172
19.317207 -13.038797 6.6308851
22.559357 27.5 -1.2335151
21.747742 4.3443689 8.1286488
-2.6571515 23.680752 26.230038
-17.206108 -0.74684525 -14.356901
4.252193 -15.352577 -19.578651
5.3281178 27.5 2.9169607
-19.560179 27.5 -5.6444955
-22.534367 25.001575 -14.049357
-1.1678753 2.2850747 -22.886402
16.329762 -5.2916613 -14.273504
-21.401054 -0.58245575 6.7704244
11.081635 27.446808 -24.579849
8.9966593 25.050406 25.03257
5.2611675 27.5 24.625256
9.4218283 27.5 22.343155
-19.417782 0.21590519 11.516513
-1.5229065 16.519932 25.136143
-1.677599 -27.5 -10.596032
-11.450318 -8.8181143 17.747826
18.486355 -7.6884956 10.545355
0.75743932 -27.5 5.0088453
-21.867157 27.5 11.071596
-21.472971 13.628069 -12.251299
7.0260057 27.5 -6.6702185
26.584318 25.163906 0.17794448
6.4715967 27.5 -10.26283
8.6378727 -15.660834 18.043921
-16.995359 27.5 18.604158
5.8653936 -22.336342 -17.979221
-8.4874992 -27.5 10.12099
-19.709972 27.5 -18.046612
16.540274 -13.013859 -11.974983
-16.848135 27.5 -4.7826452
16.606266 27.5 -15.888542
-23.585377 25.152901 -12.331689
-17.78186 -5.4052773 12.333488
19.951567 13.661257 14.61759
-7.2795749 27.176683 -25.92877
7.6113615 25.462612 -25.555202
16.30098 -0.48087502 -15.418286
-17.837276 -26.387676 -3.8681622
-2.5433989 6.6213384 -23.445827
-1.380111 9.8096027 -24.097759
25.909779 22.281818 3.280674
-3.6757894 -27.5 1.2152997
-16.376877 27.5 8.3537111
6.9360552 -0.90828323 -21.272758
0.44822347 14.207489 -24.836226
-13.61928 -18.036739 -14.108142
-21.727232 -1.1073151 -5.2361608
7.7045445 27.5 -11.522134
1.6275975 21.596392 25.951622
-11.455477 -5.8568726 18.299236
4.4912729 27.5 16.634052
-0.22613277 -23.053823 -18.813013
14.486054 -13.943561 14.205091
-5.759356 -27.5 7.9958205
-21.028578 26.951244 16.759247
-3.9331598 25.259823 -26.317251
-13.739775 -14.489726 14.770258
-15.814543 13.560177 19.016899
-17.956482 -25.041489 4.331357
8.3217926 -27.5 -8.0394592
-9.5931473 -27.5 2.8228233
13.267985 -27.5 6.0944691
-9.3441896 23.819614 -24.655107
-4.9200916 -14.434346 19.588619
17.358404 9.8357162 16.772449
-5.107923 -3.2962742 21.408836
-16.229658 -15.411863 11.739439
-0.62134057 27.5 -22.724686
-14.58882 27.382677 -22.644424
-19.698782 -0.81254864 10.627918
10.93849 27.5 0.057162642
5.8313074 -14.054356 19.385042
13.289708 21.738716 22.383356
-8.7040749 27.5 -14.503151
-7.2799067 11.447805 23.253613
-11.538353 15.126583 22.145607
-0.78275681 18.479794 25.495609
23.932961 12.180872 -5.160449
-3.9048715 -8.5963068 20.76268
23.936695 18.735741 -8.9798069
-26.399466 26.354538 -4.518127
-19.016527 9.4414082 -14.704535
-12.355953 -15.951584 -15.649211
23.06081 27.5 -8.6444407
9.2398272 -6.7486796 19.352623
20.427452 -4.2478065 7.6937871
-4.1645222 -27.5 -11.988371
-13.14465 27.5 10.67239
-3.5419352 27.5 7.4838624
23.114243 10.900858 7.5383453
19.277975 -11.040359 -7.688077
-12.675699 23.142639 22.990582
-9.2180157 -5.8651733 -19.499138
-0.082397819 20.972406 25.939005
13.190934 23.902248 -22.874407
-22.166983 25.879276 14.874678
16.958027 6.7529945 -16.419054
25.433504 19.765625 -3.9251974
-3.6052866 -10.792847 -20.485382
-20.415247 27.5 -3.2403221
18.923172 27.5 18.955927
-24.489672 15.139481 5.0112963
13.232255 -27.5 -11.813507
-22.391247 4.2929382 6.1016207
9.3162212 27.5 19.047617
-22.590355 0.66119146 1.3622414
-15.156217 4.1779633 -17.560247
14.373316 27.5 -22.122967
18.19825 -26.44846 -1.2721955
-4.5343151 -9.6611366 20.479166
22.757162 27.5 -7.9285483
-12.486823 -27.5 9.4782457
-10.512576 -27.5 0.56610787
2.8247349 -27.5 4.3073034
7.7214789 27.5 -20.562223
13.47066 27.5 21.721502
4.5848765 27.5 -11.038988
-11.885558 -27.5 11.189259
10.90684 22.713047 23.815378
9.7022171 25.977068 24.896925
15.522381 27.5 17.363468
-22.178387 10.369232 -9.6632223
-25.546741 25.122389 7.333858
-9.3698387 -27.5 -4.2308192
-17.732012 -5.077425 -12.529193
-0.31984195 27.5 -8.8378305
-7.4362783 -13.26773 18.971443
-4.3257036 27.5 -8.7240753
21.809479 18.136965 -13.103858
-22.131433 27.5 0.54165441
19.919853 -15.175564 2.4203367
-14.722668 -2.293303 -16.56428
7.97262 27.5 -20.100555
-6.1746178 -16.897346 -18.801842
10.35203 4.9712954 -20.892418
-26.356182 26.663311 -4.9829245
-3.9951015 6.967154 23.298782
-18.666653 27.5 14.133093
-8.0480108 27.5 14.944979
20.12513 1.9796734 -10.842249
-3.43607 23.03566 -26.012608
-5.5766549 -19.315239 -18.600452
15.587772 14.421448 19.382544
-5.469131 -25.000183 17.648388
17.669746 27.5 8.1270943
-5.4775357 -22.996964 17.983213
-12.793063 -4.795784 -17.618935
5.6740284 20.496126 -25.194054
-17.356609 -18.324718 -9.0624056
20.516575 6.292408 11.537674
10.967045 -27.5 12.079913
24.80555 25.387579 9.6450415
-1.6193379 27.5 -23.204374
24.281052 12.827572 -3.9686427
-19.113565 -14.404995 -6.497879
20.873444 -6.7360044 -4.8707867
14.743204 27.5 15.792583
-19.860462 0.9377141 10.927422
6.8102531 27.5 1.9749718
10.919229 27.15728 24.589607
-18.082375 -0.21329689 -13.361694
10.567389 27.5 17.723528
25.621986 19.299355 0.68553436
-5.4943876 10.802895 23.668211
-12.213741 23.270878 -23.27146
-13.461362 -27.5 11.357161
21.630939 20.073751 13.996967
8.0028095 -14.149022 -18.605312
-23.635925 21.262733 -10.708125
-10.254673 -9.3981218 18.320333
-25.454193 18.257336 0.66408187
-18.976273 -1.6776466 11.653633
-16.140427 27.5 -16.192162
-11.052994 22.490755 23.714626
0.18011475 -4.3320451 -21.843851
-9.7337627 -12.402145 -18.068745
-23.117783 21.110619 11.737714
9.3212404 -23.692356 16.195377
25.778677 20.905245 2.6298451
-11.137497 -7.8703537 -18.092464
-11.252414 -26.769207 14.306919
-5.3277869 -27.5 -3.7744315
0.97311693 3.346076 23.035812
-4.1685305 1.2890625 -22.358368
-16.228855 9.2838268 -17.748688
14.116376 -24.827576 -11.992889
-11.312196 14.143455 -22.071556
17.410488 -20.780128 -7.9895239
-9.3717031 -27.5 -14.512505
16.320564 27.5 -9.8053589
-14.316131 23.617029 22.142733
-26.244711 26.559183 -5.4483547
2.8828516 27.5 -25.904097
-16.98571 -23.551506 7.8978238
18.105873 -23.900826 -4.5656343
-22.54278 0.42789483 1.7077721
-20.871347 23.224411 16.009613
1.0714443 -14.119843 20.203888
-0.33304936 6.4679203 23.577583
-8.0677471 27.5 3.1862814
20.602556 -11.410631 1.9459296
-11.220016 27.5 6.7472496
2.7845886 27.5 25.817856
3.9412079 5.1727829 -23.049889
-14.661835 27.5 -3.0964313
21.507215 27.5 -12.375796
12.854704 -21.254856 -14.134649
24.818878 18.977322 6.1977777
15.304338 -23.228611 10.85537
-21.992725 -2.7026072 -1.9229431
17.969421 -4.1134377 12.428936
-19.372828 -13.441127 -6.2038627
24.993013 20.625 -6.7164912
21.706539 -4.5902061 -1.6914055
-19.469879 27.5 4.9955912
12.953841 -22.192244 -13.829585
20.711655 27.5 2.422065
2.0657499 -9.560936 -20.869165
-13.675494 14.606506 20.808853
5.9917693 27.5 -12.686558
11.262895 -16.661758 16.31768
-3.9946849 -27.5 14.224714
-13.347525 -27.5 4.701055
2.1715002 -7.1395187 -21.25079
-20.594265 17.951929 14.905748
8.8730822 20.426449 24.273806
-8.6886177 -27.5 -5.5855484
8.3625717 27.383635 25.618902
0.69810176 13.785866 24.740887
-19.856623 27.5 -10.264993
14.814612 15.059265 -20.110374
-0.64234942 5.2089744 -23.374557
13.8358 -7.4793062 -16.207207
-6.3825541 -10.061421 -19.900213
-1.86272 -27.5 -2.7634988
-22.857664 19.246876 -11.628311
-4.485106 27.5 -19.139627
-14.547166 21.462513 21.544636
22.263638 -1.4234276 1.0051343
-13.551903 27.5 -16.261209
-5.4252586 8.7958298 -23.311237
-11.401542 -9.4749136 17.652107
9.7595968 27.5 1.501176
-11.717953 8.9658203 20.901142
4.6864362 -6.0621128 -21.018633
-1.7227371 -0.86425591 -22.322727
-1.343855 1.2607288 22.677166
7.1311412 -21.160091 -17.729366
12.711469 27.5 23.136347
16.72373 -27.5 -6.6935935
20.199389 27.5 2.6364398
14.973839 16.710648 -20.3248
-18.933626 -22.228786 -0.13435379
-21.836855 14.239517 11.786654
17.830875 -23.13221 5.9540148
-25.012846 21.002586 6.7469044
18.436304 27.5 15.501661
-5.6680083 14.124422 24.177582
3.2731149 -27.5 -8.3187189
-13.662688 27.5 -21.915184
14.094044 27.5 -12.014103
10.301019 -12.715293 -17.699612
4.4155703 -27.5 6.9414515
14.770014 18.032238 -20.732319
21.184479 -8.1485262 0.73377049
-16.668514 20.919683 19.846941
-16.239037 27.5 -8.8106623
-6.655673 2.9852066 -22.040648
16.884367 12.439638 17.789309
13.285349 8.216651 19.816305
-14.400594 15.283432 -20.441853
14.928178 -18.458569 -12.625123
0.67940533 25.839199 26.692402
-25.094101 27.5 -4.1729717
-10.560057 -12.020741 17.661285
-25.719709 26.256023 7.3962469
7.4612398 -27.5 12.544942
-17.837791 6.4975286 15.395677
8.070981 -16.982883 -18.06163
-4.8181744 23.471272 25.862286
1.2811418 6.0148668 -23.486715
-12.355951 14.495298 21.566765
3.3879728 1.4020119 22.491413
13.201792 -7.2143469 -16.780928
19.455959 -7.4872246 -8.6801548
20.388868 -12.61657 -1.8800429
-1.5438901 2.0466814 -22.816607
-1.4359294 -27.5 -13.134871
-9.4833622 -3.1135387 -19.864038
23.837788 14.884445 7.329246
-18.578831 -6.1935863 10.887616
-17.146563 24.185644 20.124359
17.060684 -6.2174673 13.155704
21.466984 -0.5582962 -6.4938602
0.76874101 -15.948399 19.925303
10.602888 1.8912001 20.218254
-19.05101 -21.542763 -0.36209047
1.6914357 27.5 13.723717
7.5341558 -19.762457 -17.825176
-25.258797 17.807949 -2.618
-16.142399 -9.6834879 -13.372047
-2.9722424 -27.423576 -17.860435
9.9753838 -27.5 -6.6874156
-19.355497 3.1989021 12.494795
15.314864 -27.5 7.3516488
-18.675776 27.5 10.360003
-14.851404 17.228241 -20.525616
12.714643 27.5 -3.2133849
-7.734581 -1.707844 20.872847
15.716377 -1.2191138 15.866157
-8.1171646 -22.348377 -17.072998
15.266385 -24.577343 -10.567734
-11.479072 -27.5 -11.473238
-14.944021 -9.8976278 14.671976
-18.838043 -22.741291 0.31206346
-15.319299 -27.5 -2.986882
17.379839 5.5102415 -15.696945
-3.5479407 27.5 2.8698392
-11.086678 27.5 15.43985
-7.5459614 27.5 -7.6980333
-9.9650259 16.386116 -23.137648
-6.5615201 27.5 10.192088
-17.392612 -26.19117 -5.6326075
24.762342 27.5 0.7641474
23.974081 24.101725 11.150332
19.907549 27.5 5.2880044
-20.05827 -14.220642 2.5416455
10.547144 26.86039 -24.73707
19.759342 17.702698 15.942404
10.373291 7.0344539 -21.253384
6.6461329 0.23832035 21.552311
19.706142 -10.474643 -6.7288961
-19.722273 -17.412109 -0.49043059
21.39304 27.5 0.68947053
3.130239 -26.204063 18.009844
19.922848 -6.7929945 -7.9278011
16.660736 -24.221596 8.2817364
24.61248 25.332064 10.11622
-18.585503 13.133622 -16.223492
10.519735 15.386088 22.693905
-13.21318 -10.974909 16.024298
-16.050779 -27.5 -1.980395
10.551888 27.5 6.4464345
-20.735573 -10.892513 0.92374831
-16.808823 1.6045074 15.376062
-25.433943 24.999872 7.6851401
-20.922525 3.9925203 9.9721222
-12.669678 6.8154492 -19.928051
2.1006701 17.137928 -25.206774
-14.738029 -27.5 -2.0535676
-16.292562 27.5 -8.5692787
22.738104 1.9136028 -1.9594282
-7.8630152 10.060439 -22.823483
-16.789614 -13.188766 -11.605364
-18.947926 10.670724 15.144041
19.575254 3.9485786 -12.370087
18.768187 -23.25317 -0.13862592
1.8866533 -27.5 7.9499917
-25.239494 19.819523 5.1328082
22.974741 3.7994742 2.7133718
-21.041283 2.8796024 -9.240428
25.256714 27.5 -3.2907133
20.448435 0.99326563 9.8323154
24.278509 12.259718 -3.5192428
-16.260269 20.781193 20.163939
15.843989 -27.5 4.1332865
6.8953009 -5.3594165 -20.523798
-9.2770243 11.841923 -22.624542
19.734449 4.2428036 -12.198141
10.680626 -12.386779 17.525282
-6.7344575 27.5 -7.2030673
15.301691 10.977411 18.902645
-13.018826 27.5 -11.85465
-3.0274076 -14.175205 19.99984
11.146245 6.5838842 -20.792234
21.157156 25.647011 -16.215904
26.025051 26.148392 -6.1982145
-21.997051 -3.0988131 0.85859942
-22.868837 5.8913736 -5.2955813
-24.732817 18.851952 -6.5903554
14.193035 10.520546 -19.660574
-15.476982 21.420578 20.86071
-13.602709 21.456282 -22.140055
14.562794 -27.5 -5.3386464
-18.471748 -4.9449625 -11.417719
-26.478935 27.309797 -4.9030328
0.12585196 18.448597 -25.531725
12.711257 24.63586 -23.272581
11.301041 -25.081882 -14.60642
18.718828 11.709023 15.66458
18.273252 -9.2439337 10.410757
2.9659245 27.5 9.5193291
1.6635344 27.5 16.079777
-7.2926416 3.7541771 21.954462
21.899899 27.5 5.2721872
-8.6988535 -27.5 -13.538379
15.558601 25.774412 21.670834
18.222845 14.421819 -16.895266
4.124424 -25.339336 -17.951912
9.3076334 27.5 18.715979
-25.750629 20.833704 -2.6038849
-9.8676395 6.9175644 -21.480953
-10.037713 27.5 16.160702
1.3919804 14.678247 -24.885441
-19.059662 -19.723614 -3.2566853
23.624664 9.2142839 4.3398838
-6.1336946 -6.462986 -20.606245
-18.635521 -23.821133 1.2921401
-11.773323 -27.5 12.874195
12.434722 -27.5 -9.450387
-22.944008 15.120058 9.8543568
3.7222478 -16.209606 -19.559734
9.477417 -18.157204 -17.158724
-9.1365147 27.5 -7.1381507
-8.5722885 25.616537 25.259792
3.571516 -27.5 -4.5118995
-19.99799 9.5022287 13.35931
10.926094 18.003078 -22.956215
16.322388 6.566215 17.017149
21.267262 6.4265323 10.161392
-18.440306 -9.3998528 10.040181
-22.431225 13.659658 10.459451
-15.81819 -24.009659 9.8803396
22.123184 7.7040048 8.6603403
-4.647469 -25.112598 17.870722
6.4821219 -24.819637 17.3486
-26.284222 26.474234 -5.1842422
-7.3910127 27.5 -0.60354978
-3.3460519 -19.643394 -19.077671
-9.6840229 1.6686687 20.641209
23.924534 12.099382 -5.1357436
-20.571894 19.925356 -15.461155
-25.130306 27.143414 -9.7017908
-17.845169 10.196826 16.29978
10.591246 27.5 -3.8841631
-7.6411977 -10.592096 19.354118
-14.879422 27.5 -7.4406633
22.008476 -2.9866219 1.0932664
23.289967 27.5 12.480855
-20.447357 27.5 -16.440697
22.442307 27.5 4.1804843
-23.00757 13.374845 -9.0164423
3.8266022 -17.262836 19.355297
-6.5890698 -27.5 -11.082274
1.5433738 23.17868 26.212481
-23.768406 8.9610023 3.0526304
-24.592264 27.5 -4.002367
20.629616 3.8307381 10.471237
-2.5512505 -9.0324144 20.925432
-11.514685 -27.5 12.663453
-9.4108601 -26.470699 15.629286
11.696033 -27.5 -11.313967
-25.237539 19.449631 4.7411647
2.3820047 -16.180431 19.782764
-12.382985 27.5 21.788151
8.7438698 -27.5 7.1878333
-1.404359 27.5 24.332922
-5.8254423 27.5 -7.856163
13.834499 -11.364754 -15.397425
10.000404 0.54245949 20.308254
-11.265414 27.5 22.4086
-6.3905149 -27.5 11.883821
13.75247 -21.475895 -13.173872
19.41943 -14.591832 5.4064059
1.1486636 20.047695 25.728399
14.622341 -8.5186996 15.269585
-13.372965 6.5118194 19.412207
17.032547 2.5892391 -15.377191
-16.388664 27.5 0.10805532
7.3671184 25.562422 -25.640663
-17.050249 23.82893 -20.112431
18.025402 27.5 8.950551
25.639542 27.5 -3.8100698
10.811794 27.5 22.403048
-24.918905 14.852502 0.13894027
18.429586 -25.244907 -0.85094333
0.12808768 27.5 -9.7280273
9.9584837 8.0202942 21.639221
4.3390675 25.619057 26.29734
20.225681 -13.603153 -1.9174606
-23.177393 4.3325219 1.5835881
-11.335396 8.8980379 -21.115841
-22.095634 27.5 -1.1938938
26.14768 26.524105 -5.8986545
2.6979728 -27.5 0.59383518
-18.379202 -23.53182 3.6498699
-9.280879 21.751003 -24.322868
-14.512795 27.5 -9.3825846
-13.360843 18.1644 -21.663319
24.500797 17.122753 6.2293158
-22.100681 -1.9661617 -2.0563657
19.46977 -16.655487 -3.7286503
-5.4359431 -6.8901992 20.707394
0.38055763 27.5 26.687626
-6.9347477 -8.2868042 20.032154
14.679736 27.443966 -22.597763
23.704809 21.000204 -10.45519
23.874498 10.944481 4.566361
15.578691 -21.937408 10.823709
-18.84029 5.5098777 13.909706
-16.583309 12.612972 -18.153605
-3.3945098 -25.750919 18.038406
17.598927 27.5 -1.1713867
16.908125 -18.773773 9.6988535
22.436275 2.0058632 -4.2694592
-18.106003 -18.588867 7.2704687
-4.9088202 27.499998 4.3892798
-2.1325803 -27.5 1.6603653
9.2542572 -6.9050579 19.319094
-9.6572819 -15.726233 -17.507927
-18.061872 6.5838842 -15.18656
11.284642 -18.717876 15.891289
24.166924 20.358044 9.045743
9.433073 27.5 -12.825487
13.423883 2.8946733 18.652897
-16.564568 7.2635908 -16.942276
16.896421 3.5625124 -15.742874
-9.563221 -19.207642 -16.926975
-3.7481246 -0.066167831 22.18837
-17.927052 -27.445423 -2.5475869
-14.993551 -18.898293 -12.424012
-2.8205683 27.5 7.9370804
6.5814776 -9.2227058 19.9783
-17.321644 6.8806648 -16.074499
3.4578981 27.5 25.535376
-10.841533 -27.5 3.4026961
-9.827487 4.7752571 21.125439
0.48486331 27.5 4.9575162
14.169192 -20.285229 13.022153
-17.540867 27.5 8.2671728
-22.814104 17.175062 10.950806
-24.20208 27.069546 -11.726681
-14.050879 -27.5 -5.1176715
18.68277 27.5 -14.032782
19.870781 14.764276 15.05144
-16.416222 -17.953545 10.73912
12.717993 -27.5 3.0223618
21.020599 27.5 12.550579
19.016268 -11.784108 7.9625473
-22.480324 0.071389377 1.8770583
-0.95489228 -4.9251261 -21.725746
11.073536 8.5006685 -21.173054
15.929072 27.5 -0.90630496
4.1485705 -23.251829 18.31765
18.779465 27.5 13.979354
-13.444604 -27.5 0.20879215
18.020853 21.562424 18.746716
-13.834346 27.5 7.849731
3.3458195 27.5 -9.0648479
1.3314198 -12.572824 20.439356
7.701026 17.561113 -24.167868
-19.769106 -9.6313143 -6.9760189
-18.412439 -15.783651 7.7325206
10.362257 20.49275 -23.681639
18.397251 -20.762917 5.3734913
-8.2713232 -17.510662 -17.868114
7.9657402 -1.4617023 -20.81044
-10.497637 -6.6162148 18.699268
-1.0383284 4.6584802 23.244455
4.0531416 23.269409 25.961584
18.138123 -27.191978 -0.56858861
-10.162047 -27.5 -10.041707
-18.778328 -10.564346 -8.9672766
19.416641 -4.5768909 9.8594646
9.0525923 -26.153318 -15.921289
20.196318 1.7406063 -10.647677
-3.3215508 16.545761 24.985811
4.8052583 -17.697937 19.07283
-18.254063 -20.317097 -6.0523081
-8.5418167 -22.73394 -16.794802
13.56181 -0.62408495 17.850019
-5.0700884 22.327572 -25.638268
14.56354 27.5 12.389805
-4.33916 -27.5 9.9769955
16.974009 -26.882214 6.4850273
12.005961 -24.727806 14.116505
3.0529664 27.5 0.002324394
-12.397551 26.227175 -23.713295
-8.3820038 19.490044 24.284119
-14.864882 27.5 -4.993371
12.795412 27.5 -15.554816
17.60902 -24.240337 6.030405
-13.16429 22.317804 -22.587255
18.618198 -19.866104 5.1028357
21.667385 -3.4494324 -3.6261792
0.91280264 -27.5 -15.29562
5.8540974 -15.324562 19.164478
0.70933491 -6.110086 -21.541012
-17.471581 14.645042 -17.720047
19.543295 16.911995 -15.997843
8.2075262 5.2431831 21.892107
-3.7434263 9.1625786 -23.721378
-10.123397 18.284218 23.369699
1.6181322 -14.287849 20.145439
-10.16007 24.862858 24.508018
2.9247456 -27.5 8.1494923
-4.5065389 19.268372 -25.261904
-1.504427 8.1139975 -23.807768
-16.343252 -7.034421 -13.81242
13.299121 27.5 12.894787
-15.524324 -22.354858 10.783738
20.457348 -5.2425547 -7.1522694
-13.523188 27.5 -4.1112099
1.7904457 10.316637 -24.133129
13.050275 17.133089 -21.664854
9.6306467 27.5 9.0033541
-3.387151 -19.443237 -19.101311
10.737147 12.174121 22.038689
19.415815 27.5 -9.9586115
19.922813 3.4569616 -11.639921
-12.922504 -13.946472 -15.604387
-17.961952 10.1192 16.145859
21.31978 -6.4034972 2.6415811
-1.7555696 27.5 11.699016
1.6956239 -15.531602 -19.94072
18.91489 27.336655 -19.176903
-18.023308 0.61717796 -13.658007
13.090847 27.5 -5.9822006
17.995924 -3.6590118 -12.562201
15.059216 -1.6190586 -16.42979
-8.2180719 -0.20460272 -20.936037
10.344329 -27.5 2.7704701
20.25555 -14.074063 -0.27288765
21.088676 -7.8098307 2.6524832
-24.893696 19.308662 -6.2175436
-4.1789093 27.499998 3.5570297
13.723225 -15.716157 -14.539106
-4.8515935 -27.5 14.704762
18.234716 19.304205 18.055246
17.815498 -9.4609194 -11.09317
20.471413 -8.9193268 5.0091019
18.897783 -11.834601 8.2443895
23.887606 12.752419 -5.8492346
-3.3056624 -27.5 1.2724313
-24.226006 27.5 -3.86637
-4.0618644 27.5 15.032999
6.3567667 -0.41845703 21.526691
14.77982 24.515366 -21.971037
14.850961 14.616047 -19.988159
15.885998 27.5 18.904013
-21.625423 -5.4079666 0.80341673
11.965014 0.45001602 -19.158493
4.2753267 -19.111557 18.974537
-17.815754 6.4999242 15.421701
-24.154942 17.729923 7.9062552
-14.180687 -20.718903 -12.908726
-12.404596 27.5 16.979259
7.4734569 21.647274 -24.949963
18.358633 27.5 -4.629539
0.11911241 27.5 20.02112
-5.247582 22.191233 25.578102
10.315816 26.260798 -24.727165
7.4481449 -27.5 2.2003069
2.6487155 27.5 6.9079504
0.39681423 -18.3335 -19.571972
0.17116104 -18.221859 19.591587
1.3406655 3.1390839 22.9813
-6.0141649 27.5 -25.442739
22.048845 -1.4999256 -3.3295326
22.178425 6.2868137 7.8873959
3.8279264 27.5 12.251051
8.2692585 27.5 -14.795762
18.892689 7.5785265 14.425159
15.262832 -27.5 7.7234664
21.003843 20.267252 14.969448
4.8123713 18.052065 24.974779
-15.925387 27.5 -3.8846734
15.002185 12.651621 -19.454548
21.946291 7.1589355 -8.9229603
3.9113719 23.540876 -26.040226
14.542803 14.072696 -20.117949
-18.465492 -22.313179 4.1287065
-21.385651 26.017433 -16.017588
-14.053411 17.757069 -21.140007
19.613783 -18.056662 -0.33947787
11.592981 -12.025411 -17.001802
18.191998 -6.6636696 -11.343935
25.067173 17.006294 -3.3355503
-21.779415 -3.9832249 2.192235
15.884477 -27.211384 -8.7422018
22.915207 12.467742 -8.846715
26.614578 26.1605 -2.6013641
20.505882 20.226974 15.686161
-17.148134 27.5 -3.2977567
-13.335921 27.5 7.3594217
-15.948303 19.444401 -20.098488
-24.664566 25.400972 10.013121
1.8958298 -27.5 -8.4939928
-19.404659 11.898653 -14.851288
4.9358697 22.08477 -25.629208
-21.237606 13.851576 12.788054
-8.6242657 9.6004915 22.480211
1.5435071 -27.5 -3.3948781
-20.554607 -5.8507757 6.6426468
-8.7232475 5.4577208 -21.727049
-11.767725 21.915096 -23.246677
-17.242418 7.7642665 16.395279
5.1068354 27.5 12.46629
-24.645884 22.296997 -8.6589861
-20.656212 -9.1269655 -3.9978313
-12.673238 13.982685 -21.302158
7.2183895 -22.553524 -17.459223
19.810476 -16.790133 -0.059326053
19.094444 -14.629101 -6.439558
1.3607609 -27.5 16.585943
-16.146338 -20.167236 10.500212
22.092319 2.4807634 6.0872259
2.2010167 -25.789047 18.238697
3.6049299 -27.5 12.115238
8.3941526 27.5 -17.503387
-21.549477 -4.4799032 3.2276654
-18.684298 21.525303 -18.067074
-8.2645998 20.004295 -24.385864
-12.291585 27.5 13.44899
18.664797 -6.9969778 10.446566
-4.1535673 27.5 3.5336597
12.421714 11.67204 -21.020065
24.930199 18.533134 -5.4064732
12.82824 -27.5 11.737742
2.5683513 27.5 3.0121243
20.662657 -2.7671642 7.7489786
16.927654 23.121815 -20.065107
22.420227 17.321648 11.748033
21.691343 27.5 -14.397869
-1.3671494 27.5 21.496307
-6.9040384 14.878102 23.941553
22.918724 19.682159 11.620456
18.765137 0.97993565 12.723055
-25.169603 26.449066 -9.2178383
-22.00222 6.4584713 -8.5149555
-1.5557905 15.54448 24.976418
-7.4262371 -1.3266058 -21.026108
-26.214376 27.189075 -6.1104765
-18.376062 7.1068115 14.924789
-20.156446 27.5 3.5334492
11.758235 27.5 8.3607626
-21.408068 -6.7694197 0.70944625
-13.367407 -8.583519 -16.359779
-25.632505 27.5 -0.27582589
2.2646329 26.787872 -26.757177
-20.382212 -10.907571 4.049542
24.314142 26.570885 11.360629
-12.333321 -27.5 -12.177912
3.8572555 14.91375 -24.643541
-17.076067 27.5 11.286561
-15.428984 -27.5 8.6037006
20.870331 -8.8105011 -3.1985455
-15.473433 -12.577431 13.418497
0.51889795 -2.0205002 22.193375
23.783859 12.095042 5.7617617
-3.647984 -13.461411 20.009474
9.797123 -14.933681 17.551678
25.626759 20.444252 3.1631398
-4.0490475 -10.661235 -20.404018
-2.41766 -27.5 13.864889
-3.043752 27.500002 5.1686506
20.518051 7.3252678 11.892437
-7.0674057 -27.5 9.7885246
-24.858936 20.128231 -6.8694406
11.584397 27.5 23.444969
-25.035511 26.076164 9.3610134
16.965872 -13.113864 -11.359304
-13.55208 23.429565 -22.55154
-22.63669 22.50952 -13.100037
25.96925 21.252102 -0.42262366
-25.303686 17.456284 1.4006208
1.1974735 27.440258 -26.956123
14.459118 27.5 7.534277
-1.5707716 -25.799438 18.285364
-4.1117167 15.942808 -24.781685
-21.039925 1.3074079 -8.6319847
-23.051394 5.4303179 -4.0195642
11.253475 27.5 0.64273697
-24.344976 23.078876 -9.8618145
-4.0349045 -27.5 2.16798
11.243247 13.330756 -21.959148
8.7351189 -27.5 5.7309046
-25.393295 24.95858 -7.7501574
20.831619 -8.1433477 4.0617399
-10.132709 27.5 20.378435
-14.669218 27.5 -15.32733
-25.489552 21.057783 -4.699791
2.898138 27.5 -17.008673
-3.2910321 2.8023443 -22.739023
-15.636595 -4.8853626 -15.080938
22.950363 10.180449 -7.5427136
-24.799023 21.876104 -7.9676242
5.5208883 -27.5 7.9824138
-18.394472 10.130841 -15.693626
-16.374123 4.0248871 -16.387487
15.722353 -21.810101 -10.700839
-0.80276352 27.5 -6.4831719
17.772196 -24.903381 5.1202097
-21.965721 1.9813123 6.251461
14.904922 -23.26408 11.429346
25.812515 25.955666 6.8522911
-12.860174 -16.538857 15.128208
-21.63628 -3.5573106 3.6712375
-16.367702 -27.5 3.2755694
-0.52061135 4.6900511 -23.294064
-17.688068 -3.9500294 -12.884443
-5.745975 -26.291656 -17.343376
-1.2023282 24.211393 -26.433495
21.234688 -2.863739 -6.0035057
-4.6016641 -23.597595 -18.129827
10.807017 6.4255905 20.944267
-1.5577861 15.420067 24.956171
-13.8897 3.1913071 -18.389969
-4.331872 26.662727 -26.499638
1.167346 27.500002 4.5870857
20.02434 27.5 -8.5562916
-20.310617 -13.577315 0.60992742
5.5647569 -27.5 -0.028496973
1.766932 -27.5 -8.3524408
-24.291128 20.924774 8.9790926
-14.407781 -10.169407 -15.120485
-6.8639364 -11.863926 -19.419273
24.47023 15.643503 5.4055557
14.829482 -22.107899 11.810484
2.6026192 27.5 -9.8716116
1.6228416 27.5 -12.464116
-6.1550846 18.426582 -24.738926
19.683647 -15.637073 3.5392668
-18.385056 -5.1859179 11.514125
3.0396149 27.5 14.604647
19.912052 -5.588727 8.4204798
-4.8551569 -9.9044046 20.370413
19.857025 0.79188919 -10.915253
6.2162285 27.5 10.70039
-17.143461 21.628208 -19.576944
-23.423101 10.710872 -6.3650851
18.950558 -2.5801077 -11.36354
-20.565948 -0.048569679 9.2079363
10.14287 -23.606625 -15.709677
-22.717655 3.0577984 -3.7365651
-4.2883968 27.5 -10.29097
17.93758 19.775677 18.431341
-7.4718857 27.5 -14.241094
17.005463 27.5 2.6507223
11.029799 -27.5 -10.70545
-12.352472 2.6900673 -19.339668
-17.769653 12.276312 16.899939
5.355473 -10.21227 -20.17469
21.181192 2.5725708 -8.8146648
17.863539 -17.14109 8.4533558
1.7846051 -4.7050962 -21.691051
16.074873 -27.5 6.9173441
10.536965 -27.5 -2.5213428
-14.642636 24.003357 -21.960873
19.439613 8.399435 -13.880199
-13.938015 -16.356552 -14.169647
10.936751 -27.5 -13.290154
-5.4462776 -18.294237 -18.813063
-18.398777 -15.15272 8.0485554
2.8302903 -27.5 17.087421
15.22781 27.5 14.719467
-17.944698 -15.999363 8.6947937
18.177486 16.423561 17.4524
-20.410858 -7.7269044 -5.9965343
-11.29842 23.330048 -23.732145
-16.727356 5.2079544 16.347631
12.781016 24.05022 -23.132851
-22.68782 6.8960285 6.6275868
3.2085104 -6.6013288 -21.219322
5.2928987 -10.756668 20.098381
15.460459 27.5 17.171118
5.1663389 27.5 2.7499371
23.264664 27.5 2.288276
-17.76446 -12.8132 10.139395
24.020599 9.2901688 -0.9536016
9.4104757 -14.906476 -17.77685
10.35565 -9.6201258 18.222116
-21.603819 -5.4493542 1.3254685
-4.9863768 5.1491985 -22.808445
7.7398467 27.5 -10.811772
-16.786337 27.5 12.832647
-25.252077 17.205379 1.7876099
-20.656685 -6.3768668 5.9199791
11.465016 -27.5 -6.0495706
-7.7105985 8.3769226 -22.58909
17.262804 27.5 -18.934103
-23.73992 10.480432 -4.729836
-21.609882 8.1406345 -10.041376
-15.113113 -27.5 1.2286417
20.719641 12.679741 -13.203867
6.5020356 -18.256893 18.480497
-3.6835008 -15.396717 19.686026
-2.1422851 27.5 14.238496
-22.756512 21.283867 12.482373
9.7764473 6.8590918 -21.515263
-5.4481063 5.1875663 -22.707439
20.725634 27.5 14.639314
-6.295383 -27.5 10.297382
5.9638834 -27.5 16.177605
2.1740525 10.802015 24.173647
-19.542233 -2.6273365 -10.367584
-25.675385 22.356468 -4.8391585
-14.485503 9.1824923 19.137211
-1.2530471 19.777735 -25.7146
14.332521 -27.5 8.9544506
-26.457535 27.5 -2.0047071
3.3706002 27.5 -25.794127
-0.18460816 6.9697781 23.667282
0.72630447 21.250858 25.947245
24.231236 13.253654 -4.5611234
26.120108 22.724991 2.3208838
0.69001073 22.909554 -26.237471
-6.8987608 5.8434315 22.421894
11.786976 16.001915 22.167608
2.2834451 -13.920849 -20.135202
6.1898017 -27.5 0.011836202
14.883503 -13.674961 -13.818369
4.2003608 27.5 -16.353315
-2.8902967 -10.998415 -20.540804
-4.6269293 22.848114 25.793213
-7.5036492 27.5 15.051022
-0.98797387 -27.5 3.3572674
-17.879452 26.598614 19.980843
8.7420692 -15.69528 17.993847
-18.174637 -18.863461 -7.0567193
19.932447 -13.640194 -3.8982034
-21.19376 -2.7461329 6.184042
8.5035477 -27.5 12.290412
-12.621194 -8.3975563 16.981117
-3.6942868 15.901784 -24.82291
-17.256048 21.959915 19.535809
-26.169907 23.671328 -3.0793865
21.582476 -5.4408236 1.9073079
-9.2283411 8.895051 -22.136436
-1.6198711 27.5 -23.336002
-26.770906 27.155104 -2.6589978
4.2728543 1.5283315 -22.373795
23.846207 9.4555197 3.0728779
24.387356 15.689016 -5.7718124
2.284761 -20.655682 -19.039871
17.903006 27.5 -3.4593534
-19.784477 23.126371 17.251419
20.634537 8.6915379 -12.097295
